338.32743 338.42743 338.92172 339.17614 339.70379 340.48080 341.62897 342.07394 343.26836 344.31468 345.68718 346.98327 348.06617 349.25411 350.52359 351.21894 352.14605 352.70464 353.13467 353.31205 353.66118 353.73827 354.12911 354.17573 354.99120 355.44712 356.35052 356.97834 357.75160 358.49526 361.29350 361.77832 363.36145 364.94113 365.85039 367.52050 368.99061 370.25429 371.61871 373.10512 374.05963 375.13249 376.73135 377.68785 378.69804 380.23400 381.70956 382.63368 384.03784 385.31263 386.33415 387.46154 388.95349 389.72672 390.44906 391.27773 392.08188 392.54285 393.21728 393.52879 394.10307 395.04187 396.10165 396.88192 398.62560 400.41336 402.30008 405.00764 408.73147 411.40511 415.10989 418.43475 421.25552 424.11832 427.58248 430.64057 432.28339 434.26704 435.09907 435.05072 434.80322 433.99864 432.63620 431.68461 429.34767 426.98470 424.95984 421.12171 418.67598 418.41540 418.24645 418.20323 421.01490 424.86130 429.63495 382.64199 196.08392 14.18618 -102.66821 -142.25519 -194.39990 -220.01083 -249.74683 -282.84866 -1221.88078 -2293.92202 -3200.83952 -3984.69524 -4008.55873 -4009.27988 -4008.56676 -4006.81783 -4005.82486 -4004.92957 -4004.16605 -4003.80681 -4003.88373 -4004.61967 -4005.43546 -4007.28586 -4009.81977 -4013.29260 -4016.53615 -4023.05489 -4028.35243 -4037.26198 -4046.76994 -4053.01393 -4058.99131 -4065.76090 -4068.14746 -4067.53741 -4063.16921 -4057.81423 -4050.66821 -4043.48431 -4032.55948 -4024.23056 -4019.79449 -4018.75966 -4012.44036 -4010.45891 -4010.55891
339.04620 339.14620 339.50787 339.96851 340.32492 341.05133 341.93284 342.47159 343.65752 344.45049 345.47874 346.76638 348.10880 349.23540 350.14732 351.19165 352.27474 352.94334 353.57430 354.14221 354.53918 354.72943 354.64012 355.20138 355.91472 356.13658 356.81549 357.82799 358.39652 359.58218 361.51126 362.12765 363.35227 365.03636 366.36764 368.05473 369.05165 370.42781 372.23692 372.74971 374.02353 375.52113 376.47850 377.70954 379.08646 380.32768 381.59180 382.93988 384.00949 385.30771 386.39682 387.32284 388.73847 389.65014 390.57519 391.35065 392.11524 392.56717 393.28041 393.80366 394.30214 395.45011 396.22306 397.35690 399.87062 401.04670 404.52999 406.62550 410.77874 412.73518 416.09926 419.36130 421.83104 425.17072 426.84685 430.09454 431.60813 433.13816 434.04031 434.02321 433.87116 432.30931 431.42769 430.01780 424.35190 424.66050 422.72663 419.04569 418.29208 425.76577 428.85539 437.10483 438.58775 428.87705 396.84253 354.84507 74.05883 2.99658 -99.30259 -119.70571 -179.78166 -221.02616 -246.37492 -473.74776 -1287.51024 -2705.17482 -3719.55907 -3986.20486 -4009.25962 -4009.38212 -4008.68897 -4007.63960 -4006.18199 -4005.16129 -4004.09903 -4003.81452 -4003.97482 -4004.55937 -4005.24711 -4006.94225 -4009.12000 -4012.31017 -4014.19401 -4022.81363 -4027.53380 -4034.78425 -4043.54621 -4050.27394 -4060.02091 -4064.74012 -4065.86583 -4063.48913 -4059.33819 -4051.45410 -4046.32152 -4034.01512 -4024.27385 -4017.50726 -4012.20817 -4006.66689 -4004.75229 -4000.92464 -4001.02464
339.43427 339.53427 339.91757 340.45213 340.87539 341.29261 342.13972 342.49775 343.67806 344.55971 345.65389 347.08514 347.88002 349.09484 350.33447 351.43743 352.42077 353.10846 353.84175 354.68500 355.01711 355.42206 355.97062 356.44192 356.41207 357.03630 357.90358 358.79216 359.51817 360.72978 361.72212 362.90549 364.60002 365.39798 367.01997 367.73245 369.19496 370.46696 372.34621 373.13520 374.81520 375.88002 376.93600 378.35671 379.26349 380.52417 381.85417 383.05694 384.36904 385.54661 386.54053 388.01427 388.60282 389.80030 390.55642 391.24517 392.18574 392.69074 393.33838 393.98808 394.75975 395.72974 396.92844 398.84480 400.81914 403.45616 404.99216 408.51913 412.03105 413.94020 416.90254 420.39596 422.72434 424.93859 427.60974 428.11920 429.76825 430.34548 431.03457 431.30643 431.40524 430.27007 428.17770 425.53171 422.06818 421.84780 418.75044 425.81766 448.67295 455.71583 454.84193 452.12187 444.95566 426.45047 398.78028 281.91126 144.79870 -11.18663 -101.13702 -147.35209 -203.77135 -218.75353 -259.35979 -680.09749 -1349.26554 -3058.84494 -3816.28277 -3978.49942 -4007.23770 -4010.06568 -4009.29624 -4007.49018 -4006.19646 -4004.87104 -4003.83362 -4003.26140 -4002.67410 -4003.31803 -4004.14930 -4005.42713 -4007.57909 -4010.35156 -4013.93098 -4019.00478 -4023.22822 -4033.58691 -4042.12091 -4050.07308 -4056.17103 -4060.99591 -4061.10311 -4060.07693 -4055.10040 -4047.82742 -4036.51488 -4023.60147 -4017.06405 -4007.11078 -4002.82489 -3996.77297 -3994.46802 -3992.53336 -3992.63336
340.39190 340.49190 340.72533 340.99244 341.35699 342.02659 342.48179 343.17251 343.99021 344.96795 345.82673 346.85788 347.92055 349.44513 350.15223 351.48877 352.39551 353.23936 354.23035 355.00686 355.61023 356.33173 356.79029 357.23010 357.58135 358.27099 358.50631 359.59592 360.34755 360.91440 362.18127 363.55472 364.74628 366.02092 367.24729 368.59586 369.52172 371.31777 372.13727 373.60418 374.46891 376.31146 377.05094 378.52300 379.74921 380.79384 381.94864 383.08046 384.53708 385.43531 386.65172 387.70053 388.74964 389.79726 390.48281 391.11587 392.15958 392.64773 393.35086 394.10713 394.94332 395.92775 397.60340 399.37310 401.47255 404.21271 405.94263 408.85790 412.66455 415.13063 417.91186 420.14743 422.09361 424.34595 425.74233 426.79572 427.64715 428.73866 429.37847 428.08515 426.80859 427.77206 425.57605 422.85681 418.46346 417.94980 429.95866 443.18592 480.61217 464.27797 485.98973 471.20314 477.90204 443.07128 336.51887 215.24110 95.95683 -37.56508 -101.72290 -134.43690 -200.79269 -237.32468 -299.02275 -760.49106 -1795.44296 -2895.53822 -3924.32634 -3993.55510 -4011.17874 -4010.61274 -4009.35455 -4007.93847 -4006.27111 -4003.99601 -4002.80474 -4001.98347 -4001.72482 -4002.52890 -4002.31449 -4003.04849 -4004.35116 -4007.60101 -4010.82946 -4017.22163 -4024.05629 -4027.99047 -4036.44124 -4044.00458 -4054.80311 -4056.92892 -4058.98902 -4055.27331 -4049.76954 -4039.13185 -4026.56164 -4019.35997 -4004.99327 -4000.09471 -3992.67484 -3989.77083 -3987.16074 -3984.87705 -3984.97705
340.73890 340.83890 341.23657 341.91591 342.03982 342.62365 342.94524 343.65054 344.38549 345.13025 346.10026 346.82898 348.19448 349.15775 350.16955 351.62181 352.67188 353.35459 354.45697 355.44411 356.01422 356.61219 357.14001 357.76513 358.27598 359.12535 359.38199 360.13537 361.31611 361.97300 363.14141 363.82123 365.14756 366.01491 367.76539 369.07187 370.00709 371.27062 372.67823 373.74844 375.21255 376.20133 377.71650 378.78569 380.00617 380.88830 382.19580 383.32568 384.29634 385.53231 386.43219 387.62028 388.72391 389.65944 390.33306 391.13919 391.93644 392.65693 393.30737 394.05084 394.92653 396.33492 397.79005 400.06565 401.71361 404.93499 407.29640 410.40659 412.93574 416.07701 418.31598 420.24341 422.06315 423.50383 424.57906 425.30578 425.86112 426.02509 426.10803 426.54404 425.93651 423.16910 417.57529 416.19551 417.54333 437.77896 450.70542 468.50276 519.36767 619.75054 618.52625 585.41110 507.95782 472.41551 387.18117 290.98645 57.03449 30.81279 -100.16984 -124.46040 -175.56468 -254.68360 -463.01945 -1156.66732 -2449.69564 -3379.07091 -3977.13121 -3998.76907 -4011.59001 -4011.16197 -4009.77490 -4007.64893 -4005.75989 -4003.82076 -4001.93455 -4000.44176 -4000.20938 -3999.56587 -3999.87802 -4000.23523 -4002.10094 -4005.85154 -4007.63196 -4012.64653 -4017.93162 -4026.47011 -4032.25894 -4042.38942 -4048.75680 -4051.67879 -4055.05693 -4050.84575 -4041.17141 -4034.46947 -4020.21408 -4011.67214 -3998.08621 -3993.10677 -3985.50867 -3980.89420 -3979.78454 -3978.00868 -3978.10868
341.37877 341.47877 341.85163 342.25849 342.74299 343.16424 343.68417 344.24407 344.83479 345.31251 346.26660 347.37965 348.39783 349.17016 350.24800 351.52665 352.42410 353.55289 354.58190 355.56381 356.34886 357.03408 357.78922 358.31882 358.79750 359.69012 360.13932 361.02059 361.40524 362.59348 363.40563 364.30123 365.58452 366.84619 367.79275 369.07208 370.50500 371.82872 373.11072 374.07547 375.20451 376.32813 378.02880 378.70541 380.05036 381.08414 382.35180 383.15036 384.70145 385.86356 386.60404 387.68282 388.35423 389.60132 390.41574 391.07188 391.86473 392.57801 393.08712 394.12164 394.94038 396.44505 398.40984 399.92468 402.27000 404.98305 409.03782 410.84256 414.62577 416.68760 418.51956 420.87189 422.25262 422.53993 422.85000 423.37395 423.66102 423.01701 422.43698 423.26470 424.14394 418.73104 413.49153 414.05788 451.57886 457.91947 464.57617 505.76178 597.64877 786.43422 886.15691 720.53930 562.89040 432.40698 346.12840 305.66672 78.19739 -32.87458 -117.84243 -148.40931 -203.79340 -340.59975 -542.26780 -1463.58403 -2495.09955 -3640.30791 -3968.37986 -4010.77821 -4012.06733 -4011.82450 -4010.01981 -4008.37308 -4004.21695 -4001.89175 -4000.45011 -3999.08196 -3997.57311 -3997.53628 -3997.75744 -3998.23825 -3998.87316 -4001.43136 -4004.78799 -4008.96034 -4016.06247 -4021.63708 -4027.89784 -4038.33111 -4043.28745 -4047.18434 -4046.24194 -4044.10844 -4037.90286 -4027.42392 -4013.90877 -4005.00663 -3995.17558 -3985.84282 -3981.31565 -3976.93402 -3974.55377 -3973.21395 -3973.31395
341.92793 342.02793 342.26778 342.69622 343.16739 343.98101 344.28026 344.68845 345.26424 346.03289 347.07782 347.50178 348.81931 349.55699 350.59338 351.55392 352.56888 353.90726 354.59199 355.60743 356.70583 357.43888 358.16427 358.92265 359.45537 359.97086 360.81414 361.64660 362.18275 363.24378 364.02308 364.85874 365.81388 367.37280 368.27133 369.13205 370.88786 371.85348 373.15130 374.38956 375.48107 376.68648 378.05411 379.01801 380.14012 381.31267 381.85395 383.77626 384.97905 385.42561 386.75921 387.63488 388.60989 389.46017 390.22251 390.81755 391.87833 392.33985 393.17859 393.98596 395.25345 395.94821 398.68824 399.90985 403.22719 404.92029 408.85140 411.48459 414.70615 416.15996 419.07044 420.63736 421.21667 421.71888 421.72971 421.86668 421.68406 421.53487 420.98419 420.72677 419.61817 415.50100 412.78144 421.57413 458.11951 459.70729 483.19751 594.80807 793.39232 987.33595 990.81520 903.10383 767.71475 453.31616 232.71183 127.29808 -35.89381 -75.94086 -131.50509 -200.91386 -226.50611 -271.27229 -591.56970 -1430.88898 -3017.03662 -3677.27812 -3998.42879 -4014.44529 -4012.42336 -4012.35000 -4009.95820 -4008.12872 -4004.54463 -4001.84560 -3999.53611 -3997.50143 -3995.41348 -3994.71287 -3994.87493 -3994.70404 -3996.63696 -3998.78827 -4001.41685 -4004.94194 -4011.16595 -4018.09786 -4026.58613 -4031.98471 -4039.17590 -4040.20953 -4043.20253 -4040.21647 -4031.17911 -4024.43342 -4011.70551 -3999.35672 -3990.16837 -3981.05482 -3975.64504 -3972.30916 -3970.12579 -3969.19541 -3969.29541
342.37853 342.47853 342.86750 343.50994 343.89052 344.31591 344.82595 345.41580 346.06071 346.64185 347.17733 348.05260 349.22505 349.81213 351.13965 351.85617 353.00226 353.74282 354.84195 355.77610 356.93510 357.64937 358.63126 359.21568 360.00126 360.62783 361.51048 361.93877 362.88642 363.58949 364.56962 365.21032 366.35382 367.47882 368.72033 369.66628 371.17031 371.99932 373.50367 374.59260 375.71194 376.73922 377.83654 379.23551 380.30035 381.67570 382.30033 383.38684 384.48213 385.54127 386.48748 387.21264 388.36663 389.26649 390.19610 390.72463 391.65906 392.26155 393.32921 393.96148 395.36721 396.68148 398.06617 400.41238 404.07272 406.72442 409.31988 412.59205 414.30897 417.23192 419.25607 420.33637 420.70614 420.81698 420.03678 419.61589 418.95958 418.85300 418.68128 419.35426 417.00546 414.12920 412.86042 422.28708 461.34518 462.73701 496.11879 640.34077 865.74203 1122.45379 1169.36081 1072.06581 912.54266 498.15698 248.23417 138.00250 -59.00842 -136.98947 -149.33673 -194.73669 -217.82652 -326.65146 -548.86723 -1504.05121 -3215.70365 -3931.90888 -4034.63483 -4021.03913 -4012.96477 -4012.03915 -4010.91672 -4007.76207 -4003.30819 -4000.86638 -3997.34861 -3995.95105 -3993.65677 -3992.28706 -3992.02760 -3991.36474 -3992.33400 -3995.54173 -3999.51997 -4003.21183 -4008.77085 -4013.50311 -4022.58041 -4028.45871 -4034.92734 -4038.39307 -4038.44024 -4036.38334 -4029.77272 -4019.30552 -4008.16649 -3998.86807 -3989.40342 -3980.76980 -3975.08078 -3970.57122 -3968.30489 -3967.10099 -3967.20099
343.04218 343.14218 343.37061 344.12033 344.53512 345.04837 345.54155 345.93172 346.40466 347.21879 347.42402 348.63997 349.47113 350.15312 351.08990 352.25645 353.00263 354.17927 354.96136 356.28310 357.08749 357.78583 358.88479 359.40847 360.26850 361.18544 361.99196 362.61272 363.33636 364.16144 365.09778 365.83965 366.71159 367.67510 368.88801 370.15699 371.05040 372.43962 373.43040 374.83784 375.66899 376.89451 378.35495 379.44689 380.36841 381.44641 382.50908 383.49483 384.55368 385.53614 386.23473 387.49958 388.07729 388.98604 389.84052 390.58658 391.59410 391.98808 393.19215 393.86900 395.45167 396.80815 398.30292 400.75348 404.08208 405.86091 409.67367 412.72079 415.58526 417.22779 419.10907 419.88303 420.08137 419.89395 418.66013 418.17299 417.47908 416.44071 415.55363 416.33898 414.89504 413.89069 411.12322 421.52641 454.70972 463.96357 509.57218 706.28256 915.85083 1171.98652 1238.07397 1156.55620 1001.92565 602.87226 272.04540 66.81604 -77.00024 -136.39581 -175.28785 -205.53186 -281.09367 -356.85311 -645.59421 -1414.49927 -3413.70297 -4012.13818 -4049.10844 -4019.05143 -4014.37413 -4011.47132 -4010.30960 -4006.22134 -4003.14422 -3999.50708 -3996.50709 -3993.09869 -3991.24006 -3989.60357 -3989.21818 -3989.25236 -3990.09787 -3992.31984 -3996.79082 -4001.25978 -4007.43163 -4013.39955 -4020.97828 -4027.05971 -4031.23128 -4034.55757 -4034.27425 -4032.36863 -4025.62648 -4018.40198 -4009.57542 -3997.68083 -3988.23296 -3980.12858 -3974.52495 -3969.73472 -3967.60931 -3965.89020 -3965.99020
343.28367 343.38367 343.90307 344.51905 345.05906 345.43039 346.28242 346.44581 347.12714 347.46383 348.39288 349.11124 349.70931 350.88865 351.48048 352.43772 353.37158 354.55667 355.10323 356.56375 357.50159 358.22820 359.11148 359.95091 360.67958 361.70076 362.22359 362.82087 363.67589 364.53898 364.95675 366.23879 367.11437 368.20082 368.71174 370.25450 371.11592 372.59580 373.59984 375.07278 375.92009 377.28288 378.13879 379.42613 380.18164 381.45387 382.36586 383.09794 384.38892 385.41435 386.23615 387.43099 388.06869 388.61953 389.70113 390.24241 391.55117 392.01498 393.15682 393.95079 395.30236 396.83909 398.48568 400.91281 404.14715 406.93296 409.19248 413.61632 415.41226 417.06210 418.90025 419.58110 419.58782 418.77435 417.82957 416.72096 415.75913 415.22135 415.05525 415.20404 414.25887 412.22289 412.50990 429.59419 456.79258 475.18505 557.66778 714.14346 1110.07989 1201.64212 1168.13953 1157.96986 1016.35224 617.55654 286.94428 -2.40523 -69.49439 -121.15241 -172.93982 -208.63041 -260.08951 -354.62596 -525.58311 -1677.31517 -3104.07357 -3913.81505 -4056.05546 -4020.12162 -4013.33490 -4011.17385 -4008.97388 -4005.29450 -4002.67243 -3998.17559 -3993.68904 -3991.62311 -3989.04994 -3987.26280 -3986.95586 -3987.12267 -3988.07891 -3990.45952 -3993.92680 -3998.65989 -4005.80279 -4011.16113 -4016.25782 -4023.63284 -4028.70193 -4031.45847 -4031.56583 -4028.38079 -4023.80100 -4016.85776 -4009.20461 -3997.14642 -3988.39921 -3982.37122 -3975.23812 -3970.75655 -3967.43382 -3965.90088 -3966.00088
343.95926 344.05926 344.45677 345.02653 345.60404 345.97911 346.74648 347.41209 347.93783 348.31343 349.14680 349.46764 350.09881 350.68848 351.94707 352.75058 353.39074 354.96865 355.57424 356.48374 357.69334 358.40689 359.49248 360.16115 360.99201 361.90833 362.48468 363.46172 363.93491 364.87996 365.61932 366.52525 367.47768 368.36567 369.19922 370.56040 371.68730 372.56140 373.78444 374.80277 376.28354 377.39516 378.27050 379.63482 380.35654 381.29020 382.39693 383.16108 384.36191 385.10485 385.94708 386.88156 387.90824 388.60191 389.40755 390.30288 391.27321 391.89412 393.09639 394.02610 395.11151 396.95315 399.08357 400.50958 404.22810 407.17211 409.37590 412.80849 415.45402 417.70455 418.70102 419.35215 419.01447 418.35772 416.80930 415.63645 414.76498 414.56510 415.01402 415.44262 414.48287 411.13083 419.14063 436.43977 455.18643 509.65963 741.38832 903.43568 1087.32136 1017.81068 964.12158 1036.41912 1019.04273 636.46379 371.64466 62.24996 -95.13410 -111.65999 -176.31049 -216.65796 -260.83623 -334.47086 -578.92303 -2346.44472 -3741.27220 -4037.15506 -4039.74974 -4019.81213 -4011.84773 -4010.32390 -4007.37075 -4003.83391 -4000.32528 -3995.91358 -3993.70155 -3989.17828 -3986.89522 -3985.59890 -3983.96681 -3983.73106 -3985.54794 -3987.44161 -3991.53999 -3997.35932 -4000.13958 -4009.36258 -4013.91525 -4022.35241 -4025.73157 -4028.42287 -4029.43511 -4028.02591 -4022.92129 -4017.77440 -4007.21084 -4001.13953 -3989.11276 -3983.59946 -3977.30017 -3971.57999 -3968.26743 -3966.60979 -3966.70979
344.52907 344.62907 344.89192 345.43265 346.16187 346.50076 347.26158 347.72152 348.30541 348.77276 349.28391 349.96724 350.81888 351.39157 352.72439 353.20111 353.84561 354.95234 355.85444 356.66295 357.69844 358.72206 359.69862 360.43538 361.49144 361.99010 362.90052 363.60286 364.38344 364.99699 365.95829 366.69352 367.77242 368.19135 369.77781 370.80638 371.54582 372.91883 373.73847 374.99208 376.23698 377.01479 378.16787 379.62561 380.41187 381.20965 382.40483 383.33054 383.83728 384.89568 386.02578 386.76145 387.55688 388.40752 389.11247 390.09752 390.87044 391.57422 392.79717 393.76104 395.31764 397.18850 398.58073 401.29913 403.62317 407.39771 410.40311 413.00061 415.45470 417.54862 418.40653 418.94891 418.50539 417.80938 416.00024 415.12789 414.81606 414.70816 415.59831 417.08546 416.18919 412.11724 421.42575 450.11337 458.19840 565.70096 689.37750 928.22850 975.40794 897.51131 744.05672 762.19691 871.51051 815.00039 369.14905 86.48034 -92.68787 -114.53765 -155.41294 -215.97938 -246.04404 -311.69333 -641.56661 -1686.10404 -3535.24763 -3955.80894 -4039.29835 -4025.69664 -4010.95990 -4009.09574 -4006.16280 -4002.49506 -3998.08824 -3993.47837 -3990.44480 -3987.04035 -3984.76916 -3982.51348 -3982.27158 -3981.84881 -3983.47861 -3985.13029 -3990.79910 -3994.81164 -4000.26236 -4007.16939 -4013.27723 -4018.01292 -4023.38898 -4026.98734 -4027.17405 -4026.09830 -4021.78688 -4017.45068 -4007.98874 -3998.24562 -3992.99431 -3983.40020 -3977.40319 -3973.75433 -3969.62836 -3967.81190 -3967.91190
344.72768 344.82768 345.34330 346.02880 346.46491 347.06416 347.77957 348.15521 348.61896 349.40406 350.02153 350.71585 351.06840 352.01882 352.73052 353.36953 354.41578 355.32864 355.91716 357.18895 357.96166 359.07513 359.76792 360.60414 361.74108 362.44888 363.01931 363.80021 364.69641 365.37901 366.08530 366.99666 367.88852 368.70567 369.62296 370.70336 371.56017 372.98427 374.01513 374.88750 376.28205 377.15391 378.01960 379.24198 380.34820 381.18772 381.94704 383.14793 383.88779 384.74976 385.54560 386.72521 387.20538 388.19208 388.96479 390.06789 390.67470 391.63639 392.80426 393.73253 395.64504 396.60275 399.50806 400.88235 404.24602 407.25353 409.87182 412.29165 415.38071 416.90918 417.98565 418.40784 418.15481 417.28426 415.75849 415.35749 416.08182 417.90207 418.90885 418.12948 410.57454 407.55270 412.66525 425.69859 469.73473 597.76622 720.35753 833.71005 721.70185 593.86409 568.03681 669.44705 806.47694 732.68259 512.28062 189.68467 -28.53888 -101.59043 -147.75318 -209.68291 -236.91352 -281.32740 -522.04648 -1700.97461 -3019.96654 -3807.10716 -4047.26087 -4041.65333 -4019.42729 -4009.03989 -4004.22818 -4001.30179 -3995.26953 -3991.67017 -3989.32921 -3984.73416 -3982.66954 -3980.80718 -3979.91976 -3980.87301 -3981.52873 -3983.67905 -3987.55526 -3993.84680 -3999.82084 -4005.10860 -4012.08071 -4017.68592 -4019.74826 -4024.30539 -4024.90454 -4023.89675 -4020.16728 -4016.48130 -4005.59328 -4000.78314 -3992.88179 -3986.95237 -3979.33828 -3975.05885 -3971.25571 -3969.26698 -3969.36698
345.19195 345.29195 345.79957 346.47630 346.95970 347.52706 348.15461 348.69328 349.36142 349.85007 350.30779 350.83027 351.65726 352.64937 353.05801 353.77447 354.59219 355.22159 356.52686 357.29614 358.10845 359.23378 360.08087 360.73257 361.73882 362.66475 363.18216 364.07742 364.60826 365.57452 366.24700 367.14947 367.89929 368.82849 369.57807 370.81106 371.81153 372.61945 373.66933 374.94240 376.04911 376.85071 378.19098 378.92267 380.09885 380.97348 382.06264 382.83009 383.67634 384.78450 385.50698 386.26263 387.08703 387.76301 388.79012 389.77090 390.70140 391.41972 392.79835 393.63730 395.66812 396.81260 398.51917 401.59165 403.55737 406.44886 409.99057 411.95825 414.79871 416.96408 417.80294 417.88188 417.63372 416.74845 416.03310 416.75824 417.66383 419.91310 417.15990 403.65045 376.65535 380.49431 375.16987 399.20819 462.89937 562.75464 749.98794 721.91691 629.81499 511.02192 503.64218 586.08891 719.59095 690.94380 467.55875 167.32626 -17.62004 -93.04886 -155.89336 -194.53673 -222.42258 -279.66613 -467.48571 -1459.90131 -2333.77093 -3506.63156 -4041.81552 -4073.67954 -4031.53348 -4008.13090 -4002.55472 -3998.23569 -3993.31480 -3989.27972 -3986.05792 -3982.98963 -3980.31155 -3978.97607 -3978.04027 -3978.47441 -3979.93376 -3982.26286 -3985.87107 -3991.18256 -3998.68998 -4003.42999 -4010.66473 -4015.10093 -4019.62424 -4021.86024 -4022.94409 -4021.38288 -4018.92417 -4014.48693 -4006.27681 -4000.14241 -3995.47517 -3987.11820 -3980.69801 -3976.95712 -3973.23022 -3970.78218 -3970.88218
345.53859 345.63859 346.04736 346.69098 347.37291 347.91929 348.52446 348.99325 349.82671 350.18867 350.69336 351.48643 352.05478 352.81938 353.34004 354.11288 355.10188 355.73893 356.87645 357.49901 358.23452 359.36090 360.05523 360.90597 361.86242 362.58891 363.40805 363.99139 364.72189 365.66520 366.47930 367.11772 368.17091 368.81210 369.76200 370.57335 371.62595 372.81093 373.63509 375.09946 376.03973 376.95421 377.99978 378.92787 380.05553 380.71030 381.60571 382.52974 383.33447 384.35393 385.36938 385.97167 386.79410 387.73873 388.61186 389.32435 390.16395 391.39584 392.63780 393.38374 394.82950 396.84060 398.26998 401.32876 403.76523 406.60337 409.84738 412.48193 414.23592 415.88560 417.33435 417.63742 417.25128 416.59530 416.45578 419.18541 419.55400 413.99199 396.84644 376.12289 344.81161 319.47736 321.20842 350.20788 394.08157 478.80704 612.78722 594.97218 535.56704 474.45975 433.24757 466.76465 558.79947 584.15237 398.68518 168.08309 -14.65465 -97.55515 -144.69993 -172.65646 -215.33415 -266.25581 -432.08380 -836.06944 -1326.31691 -2441.82489 -3692.99854 -4058.75644 -4026.49453 -4002.30117 -3998.73667 -3996.60481 -3991.68525 -3988.57807 -3983.44288 -3981.09346 -3978.64516 -3977.04394 -3976.06230 -3976.53283 -3978.51480 -3981.51695 -3985.43790 -3991.32847 -3996.60832 -4004.00735 -4008.28188 -4012.61836 -4016.94284 -4019.64300 -4020.11167 -4018.89046 -4016.42041 -4011.84002 -4005.03992 -4000.79875 -3993.68544 -3986.91759 -3981.05886 -3976.67966 -3974.42000 -3972.30784 -3972.40784
345.84710 345.94710 346.47940 347.18815 347.80570 348.20747 348.96571 349.27103 350.01821 350.39696 351.05658 351.80715 352.35625 352.90618 353.29594 354.43466 355.33513 355.78491 356.73321 357.84465 358.42600 359.42154 360.33525 361.10767 361.84608 362.64039 363.43319 364.24906 364.98812 365.62997 366.16720 367.49635 368.13197 368.92668 369.93520 370.68450 371.52506 372.76954 373.93872 374.89681 375.85989 376.97782 378.08218 378.79858 379.99447 380.49159 381.41709 382.52409 383.28047 383.54912 384.98281 385.67670 386.58183 387.41344 388.17426 389.07842 390.11924 390.73539 392.61493 393.44894 395.01273 396.71412 398.50530 400.67257 403.64242 406.46326 408.29388 412.15441 414.00823 415.33409 416.47612 416.93461 416.87353 416.91941 418.64149 420.73933 403.36261 381.35340 369.60333 329.80356 300.04594 287.36352 285.62118 289.92334 344.51093 407.16121 480.88313 474.61871 443.39083 431.26388 399.25464 367.80335 450.77335 398.08400 305.46663 146.16624 18.03715 -49.80022 -93.61701 -128.90174 -214.55563 -250.05807 -323.26788 -581.17779 -1268.05339 -2956.29731 -3839.29433 -4024.37451 -4005.65275 -4000.44900 -3994.81504 -3992.43716 -3987.94990 -3984.91222 -3981.91541 -3978.65546 -3977.13260 -3975.28605 -3975.03877 -3975.26064 -3977.38536 -3980.89238 -3984.96990 -3989.87087 -3995.16296 -4002.97919 -4006.84438 -4011.29133 -4015.75922 -4017.08981 -4017.67465 -4016.52126 -4013.11546 -4011.32673 -4004.44787 -4000.04340 -3991.42932 -3986.32556 -3982.56105 -3978.24794 -3975.45670 -3973.79965 -3973.89965
346.25348 346.35348 347.33994 348.71322 348.90523 349.10457 349.45639 349.67565 350.52411 350.75272 351.33528 352.00564 352.44182 353.10705 353.78207 355.02263 355.50521 356.32182 356.95779 357.89790 358.84876 359.42884 360.16443 361.11410 361.97249 362.70633 363.35524 364.13854 364.94365 365.86950 366.35578 367.26652 367.92481 368.76302 369.43106 370.60643 371.49855 372.54472 373.93302 374.12155 376.05854 377.26447 377.96925 378.80302 379.72350 380.76636 381.42937 382.13063 383.07449 383.63023 384.60219 384.95274 386.40614 387.07174 388.04998 388.79470 389.95401 390.77226 391.88806 393.41356 394.79961 396.92954 398.51338 400.66047 402.71899 406.43019 408.16678 409.95948 413.54352 414.62649 416.16076 416.49874 416.65851 417.07131 419.46362 419.87915 394.07817 344.02541 314.74857 281.95081 243.90271 226.29814 235.38910 252.05213 304.19064 313.30306 327.02528 378.48319 408.53297 385.37116 357.50081 299.19118 313.98785 296.62643 229.74618 107.96292 10.04793 -26.38561 -72.92388 -151.95957 -183.07098 -234.73398 -260.88239 -678.38122 -1302.34550 -2363.66484 -3732.13750 -3929.05326 -4001.41371 -3995.98671 -3992.30313 -3990.55296 -3986.04451 -3983.22553 -3979.77879 -3977.79691 -3975.42869 -3974.11387 -3973.88667 -3974.79009 -3977.22945 -3979.40663 -3984.46973 -3989.05737 -3995.36406 -3999.41456 -4005.84592 -4009.65570 -4012.24114 -4015.20511 -4015.16344 -4014.59057 -4010.80384 -4008.81489 -4003.17179 -3998.87426 -3991.18431 -3987.41185 -3981.97825 -3979.05604 -3976.42447 -3975.31535 -3975.41535
347.16246 347.26246 347.35956 348.07169 350.46226 348.58469 350.37002 351.29531 351.38222 351.65655 351.77111 352.25740 352.78156 353.53098 354.45991 355.55574 357.06078 357.08657 357.80063 358.70962 359.74103 359.74933 360.58383 361.34345 361.82664 362.58862 363.34141 364.10402 364.79112 365.60143 366.15575 367.22432 367.91327 368.70532 369.11337 370.76058 371.78780 372.89271 372.19096 371.94549 375.31073 375.27210 378.24856 378.86134 379.47599 380.44414 380.86337 382.34197 382.80676 383.72855 384.46132 385.16046 385.98190 386.79359 387.65498 388.86271 389.54179 390.38234 391.98248 393.48088 394.70825 396.79765 398.29330 400.66409 403.48152 405.77751 408.23310 410.60966 413.02286 414.31454 415.50047 415.96492 416.39301 416.94815 418.99045 417.70797 364.45127 318.91785 293.40498 251.87354 222.07255 196.54658 201.18120 231.63304 251.32713 283.35503 311.49122 335.54247 363.24376 365.87576 352.15357 280.33767 228.06672 161.13832 182.01520 126.02463 81.51024 103.08649 -36.28199 -110.28691 -178.78848 -218.92889 -250.54246 -427.20279 -1038.31529 -2257.39027 -3492.48150 -3856.60810 -3993.28204 -3993.31657 -3990.08424 -3987.02990 -3983.99892 -3982.00345 -3977.38337 -3975.41602 -3974.51135 -3973.45995 -3973.30601 -3974.16833 -3976.24649 -3980.14191 -3984.29129 -3988.81148 -3995.58071 -3998.42246 -4004.29503 -4008.29434 -4011.49665 -4011.89881 -4012.94286 -4011.87407 -4009.71934 -4006.15837 -4002.56723 -3996.34575 -3992.02699 -3987.10274 -3982.82645 -3979.61501 -3978.17069 -3976.90938 -3977.00938
335.86251 335.96251 335.19838 331.06507 333.53284 337.60596 348.86754 351.65365 351.28367 352.50595 353.85004 353.86657 354.20094 355.07157 355.24672 355.64910 357.46106 357.19140 359.04209 359.32845 360.99075 361.18597 361.36839 361.57632 361.75580 362.38704 363.27340 364.16471 364.56805 365.55710 366.20408 366.55052 367.45299 368.08589 371.47066 373.49849 376.80482 376.24487 372.81125 369.26929 364.39301 371.11614 375.48917 376.30298 379.57389 380.12500 381.02311 382.17040 383.05394 383.83468 384.56958 385.22129 385.87644 386.74253 387.42013 388.29607 389.19274 390.56945 391.61343 393.22545 394.25470 396.34949 398.79995 400.69873 403.12673 405.63505 407.52689 409.99705 412.10013 413.64788 415.34799 415.39960 415.85861 414.83432 399.85345 384.60730 323.88211 294.90749 256.91498 226.79410 195.07708 185.61238 195.41753 226.89820 270.51178 294.58444 311.95871 345.58805 371.95585 393.72782 388.45654 359.81299 292.72210 221.00897 250.71124 241.17203 273.28524 219.24391 51.67159 -35.08255 -125.96398 -174.04775 -218.69173 -260.24343 -818.20706 -2136.60522 -2696.51948 -3552.52699 -3927.56495 -3956.49738 -3982.92121 -3984.27412 -3981.33303 -3979.73260 -3976.91195 -3975.45022 -3973.89589 -3973.37632 -3973.51745 -3974.39845 -3977.13613 -3981.52408 -3984.81354 -3988.81876 -3994.07184 -3999.43071 -4003.34836 -4007.32540 -4008.84899 -4010.24424 -4011.04137 -4009.31532 -4007.28068 -4004.66230 -4000.70764 -3995.95624 -3992.11025 -3987.87426 -3983.58309 -3980.57082 -3979.58562 -3978.58186 -3978.68186
281.44680 281.54680 266.47694 291.82099 273.40726 313.84071 329.79455 335.55379 341.00535 350.74283 350.57588 353.44804 351.61517 354.01947 352.82364 346.13701 350.26457 342.61264 351.16905 351.50390 357.04314 360.32455 360.87189 361.96125 362.31764 363.23318 363.87525 364.24215 364.66232 365.51079 366.06711 366.64513 366.98445 367.82647 373.11044 384.53606 393.03837 393.74816 377.77974 368.06404 361.02846 360.52242 363.10660 372.80800 376.52315 378.43974 380.08211 381.35921 383.21775 383.48961 383.91361 385.51431 385.78942 386.50954 387.43947 388.08123 389.12008 390.27528 391.19165 393.57780 394.34199 396.30365 398.90506 401.26077 402.99952 405.74161 408.27677 411.01627 413.29002 412.71691 411.60885 412.26791 404.87946 395.82850 386.57956 350.42066 312.28488 289.20697 247.19552 211.40653 197.69352 201.34941 220.17117 251.17179 284.60395 312.87574 336.21075 361.05375 380.95432 404.21096 409.19895 405.25367 364.49286 356.54109 349.82494 395.49170 362.16562 333.01098 225.95946 -18.74397 -112.60126 -136.41701 -188.91368 -238.83876 -274.97528 -1239.69726 -2084.34820 -2971.55224 -3667.23095 -3932.99851 -3939.97954 -3972.69438 -3978.80342 -3977.44265 -3975.68584 -3974.51981 -3973.64942 -3973.68995 -3974.56645 -3975.76415 -3977.99648 -3982.15936 -3985.67213 -3989.55127 -3995.67390 -3999.16941 -4003.32061 -4005.91829 -4008.00343 -4008.66274 -4008.22935 -4008.41718 -4006.18273 -4002.38715 -3999.99612 -3996.40874 -3991.65904 -3988.08028 -3984.52445 -3982.18886 -3981.18304 -3980.27100 -3980.37100
153.62492 153.72492 145.84431 189.45352 185.66046 221.38196 277.07664 279.77322 286.00783 302.77412 322.52328 337.82910 340.23336 319.29116 324.05776 305.75356 288.25635 270.31027 306.78439 301.17641 334.79776 344.32151 351.90918 362.89981 364.09271 364.02874 364.50285 364.73110 364.95588 365.60705 365.96367 366.17361 366.59107 368.10132 381.25597 400.04384 445.42637 458.99837 418.43401 368.40394 359.03973 358.67409 358.67313 361.89968 369.10494 369.91999 374.08152 377.12567 380.31987 378.47952 380.76970 384.11583 384.64712 386.66376 387.51106 387.93026 388.85524 390.08970 390.92091 393.22155 394.73895 396.41525 399.73727 401.85278 403.17334 405.61609 405.96146 410.47433 409.30448 403.83468 401.52491 400.11745 377.21688 374.92933 342.99199 330.96722 314.55958 287.40295 270.57495 248.79750 233.93896 239.17905 266.12155 279.81133 307.29975 344.69543 345.48848 361.23436 372.48675 391.46127 408.24726 428.86904 435.48480 421.79666 397.65079 432.40179 442.86925 353.95035 291.98876 44.14553 -73.66507 -123.56633 -182.20940 -223.47877 -254.32167 -484.30061 -1575.98954 -2213.46548 -2937.14719 -3668.77800 -3803.73221 -3953.62066 -3971.70495 -3974.20055 -3975.10062 -3974.51042 -3974.14399 -3974.26067 -3975.45972 -3976.88712 -3979.75529 -3981.28645 -3987.19580 -3990.69627 -3995.57609 -3999.72616 -4002.88012 -4004.90777 -4006.74472 -4007.26326 -4007.15043 -4006.13714 -4004.36054 -4001.40454 -3999.63283 -3996.04418 -3992.15356 -3987.90859 -3985.98268 -3983.23085 -3982.65946 -3981.99143 -3982.09143
-33.44983 -33.34983 -7.20403 5.57903 49.62107 98.21742 131.24109 103.31374 177.19077 180.80587 229.09296 270.38940 200.46353 226.69240 193.36322 214.46716 216.04872 172.25474 173.53910 204.31106 255.16547 266.84997 307.54721 356.16509 355.88878 359.36431 362.68314 361.43631 364.65434 365.54916 366.78679 366.14924 365.60097 365.97233 370.60366 420.53344 522.72299 551.19854 511.88050 443.27647 379.52950 358.38000 358.34501 358.34157 358.34485 359.80550 363.08537 366.22572 367.45500 367.33454 375.42083 376.55507 382.10983 384.96584 387.00576 387.88187 389.08418 389.99516 391.61469 393.45107 395.24643 398.64653 398.74710 400.69060 396.71616 392.50129 390.27291 380.50344 388.34467 377.52928 374.28375 361.78572 356.59749 336.88869 324.40405 329.94181 332.23667 326.07195 302.47478 312.20508 302.77888 297.05205 296.85917 330.65400 343.63064 346.51228 347.07524 347.43927 353.36064 374.81984 395.61727 415.91618 432.08870 435.50705 436.11077 440.46611 434.30678 395.64390 318.46886 135.76337 -10.90867 -91.50968 -140.72737 -197.65570 -250.90401 -298.98865 -446.00335 -641.67358 -1188.73824 -2535.11893 -3270.36084 -3764.30194 -3891.69340 -3956.52926 -3968.54616 -3974.31664 -3975.26654 -3975.81721 -3977.37965 -3979.16187 -3982.08271 -3984.41056 -3988.22031 -3992.45654 -3996.49463 -3999.10184 -4003.18611 -4004.52973 -4005.67224 -4005.85041 -4005.51842 -4005.03508 -4003.10164 -4001.43084 -3998.78639 -3995.74019 -3992.78594 -3989.94658 -3987.30162 -3985.59773 -3984.16683 -3983.57863 -3983.67863
-190.63892 -190.53892 -152.19226 -116.60909 -117.89421 -66.27694 -60.88989 -5.26766 0.23839 26.15387 64.91794 115.88410 95.53288 63.81601 65.33637 34.01781 -69.28207 30.04899 9.27527 39.26298 62.98392 199.08854 256.59731 284.54178 318.45574 326.70627 351.09964 346.09142 346.49554 363.10977 366.38414 366.37527 365.93091 364.80579 372.41284 441.64530 591.15453 624.68296 592.96967 531.31272 467.43247 375.91792 377.44354 362.01256 358.36804 358.36572 358.36795 358.37642 360.04762 360.51802 364.89816 370.37231 374.61563 382.69385 383.91506 387.30946 389.06746 390.67642 392.43705 393.92215 394.64998 396.00432 387.10768 366.86846 370.22943 356.23016 313.39195 312.32485 317.37489 329.49560 332.64037 327.65218 328.55849 334.83343 342.15624 355.83087 368.89607 378.91997 380.56803 366.10512 346.14598 340.50662 348.71040 351.73631 349.42317 346.87689 342.34813 336.67236 335.83780 354.11651 383.51906 405.51416 423.43014 429.29789 435.57174 437.63188 438.05278 426.44097 333.50036 196.64525 20.98461 -60.34572 -120.89820 -168.88878 -196.45015 -235.08141 -278.29968 -416.51638 -861.94971 -1919.03779 -2754.39713 -3310.43181 -3613.42762 -3812.14536 -3931.46742 -3969.17795 -3976.51563 -3977.23227 -3979.80774 -3982.12443 -3984.53794 -3987.45279 -3991.84746 -3994.44154 -3998.60541 -4000.40555 -4003.11585 -4004.32363 -4004.97393 -4005.10871 -4004.60423 -4003.79199 -4002.38482 -4000.89035 -3998.53581 -3996.79262 -3993.77681 -3991.31613 -3989.10858 -3986.98901 -3985.53691 -3985.11613 -3985.21613
-252.44608 -252.34608 -233.29722 -210.89535 -234.85037 -186.35687 -165.46904 -156.12733 -163.16542 -77.34782 -103.72948 -75.10045 -98.38784 -97.38956 -113.49177 -134.13148 -123.31913 -158.87979 -161.56018 -107.48173 -70.76839 1.77465 112.22101 208.08552 248.00608 273.52998 269.49151 258.45085 279.65110 333.99536 353.04226 364.20092 365.90588 358.18680 390.42495 463.05703 668.92033 722.85224 700.17070 673.94822 612.48216 517.12266 431.10590 390.13028 361.62352 360.15907 362.95618 358.38986 358.37511 358.36293 358.38710 358.42062 360.22880 367.33354 380.85380 381.97655 387.46509 389.38620 386.29000 390.10756 383.93457 370.22468 349.74953 323.09025 314.97888 291.60480 238.62139 252.34085 237.09298 265.42201 302.74551 325.63691 339.85634 351.61479 356.26898 386.28391 421.23177 432.95054 429.87419 419.96342 395.81894 379.60697 364.50564 355.82668 345.33479 339.61719 333.26300 328.89135 328.49955 338.98180 373.73550 393.48863 411.42436 426.06776 427.80689 429.09558 437.62333 416.99891 392.17534 339.29947 121.38119 -10.75199 -81.46103 -135.19365 -152.13382 -199.55396 -217.90997 -265.73055 -547.53127 -1193.22304 -1344.08236 -2729.16135 -2925.31881 -3541.79322 -3820.22493 -3951.60042 -3958.16224 -3978.06756 -3983.25433 -3985.75263 -3988.20255 -3991.11244 -3993.62804 -3995.94797 -3999.29917 -4001.97528 -4003.16057 -4004.09447 -4004.42426 -4004.38875 -4003.73520 -4002.92216 -4001.85470 -4000.54432 -3999.26117 -3997.77272 -3995.25174 -3992.40949 -3990.58681 -3988.58250 -3987.41299 -3986.49565 -3986.59565
-293.15993 -293.05993 -282.14560 -275.35073 -277.56672 -250.40209 -224.81861 -217.77481 -219.55579 -209.35830 -174.82361 -220.43464 -207.62388 -205.03375 -219.15036 -198.77369 -222.97194 -234.29801 -225.59940 -187.64805 -154.68342 -113.98239 -68.11590 16.53050 63.25887 124.27087 114.56659 86.22039 234.09537 252.81539 318.61011 346.77616 355.57090 348.53987 391.47845 500.40973 688.76126 736.22739 747.95533 746.22267 692.68765 599.86289 561.38366 464.24854 410.83667 417.81249 394.23032 371.01237 358.42423 358.43339 358.42654 358.44431 358.44557 362.15094 376.92342 374.92238 379.26546 376.68388 365.68269 347.54858 352.59449 316.48600 279.41373 226.82339 198.42883 176.33580 176.81862 181.97030 194.70347 235.79940 296.94034 333.95944 367.97789 379.09375 401.72604 429.31873 472.21239 507.34141 480.67050 452.73741 437.28336 391.62067 371.54313 353.55368 340.72003 329.52743 326.69289 326.30169 327.81208 331.25570 354.68943 380.98521 397.82357 412.80209 420.27249 424.66559 433.38605 441.39325 413.87772 371.06043 337.95440 155.79334 54.27053 -76.59227 -126.94264 -164.87290 -175.31172 -216.48531 -281.63309 -425.86356 -916.73178 -1330.47247 -1775.76614 -2994.33359 -3563.67360 -3716.73445 -3877.24080 -3965.60657 -3983.31466 -3988.27950 -3990.06552 -3993.86124 -3996.84737 -3997.87904 -4000.94411 -4002.77942 -4003.86549 -4004.26022 -4004.47298 -4004.12890 -4003.52296 -4002.72065 -4001.74432 -4000.91200 -3999.92028 -3998.68583 -3996.58743 -3993.77082 -3992.16849 -3991.07752 -3988.79155 -3987.57816 -3987.67816
-297.71184 -297.61184 -296.06084 -294.48658 -291.42610 -281.07642 -275.79819 -279.80334 -268.28910 -247.58616 -254.43786 -262.23256 -269.38279 -257.05700 -262.43324 -262.12857 -263.20788 -265.67251 -271.74347 -250.78875 -211.99057 -186.97519 -172.41848 -111.28305 -75.88330 -23.30233 -63.50421 -86.58188 -17.03586 115.81757 189.55402 273.89321 305.72775 291.78333 348.21627 531.34349 699.16646 746.06222 771.46510 770.32499 760.44451 727.63234 691.58525 626.92592 596.77463 527.94002 486.85966 514.81210 484.52695 444.93720 386.87157 370.07742 371.53859 363.56389 362.90747 360.40016 359.74742 352.78760 316.08530 296.30790 287.52981 232.68593 198.36398 174.94962 142.35177 133.20378 114.51419 129.35817 172.33221 221.64820 308.87890 350.46782 383.47605 400.75104 419.52561 434.49674 522.57459 582.70274 555.07625 480.67903 457.78861 401.24196 387.50281 355.99306 337.19632 329.10500 325.20609 325.52564 328.61490 337.73717 362.02411 380.99475 397.12651 411.35106 418.32913 420.35852 429.34545 437.93507 447.93470 450.55901 383.60433 244.30700 192.89068 34.76626 -80.63247 -134.10945 -135.99135 -157.38025 -192.68159 -229.05909 -347.60086 -617.09805 -1256.47987 -1904.95525 -2949.42974 -3271.43751 -3651.32755 -3890.95099 -3975.50044 -3990.67607 -3994.19681 -3996.56699 -3999.24266 -4001.04312 -4003.44711 -4004.30707 -4004.93588 -4005.14247 -4005.00264 -4004.31390 -4003.59651 -4003.25388 -4002.13185 -4001.22337 -4000.62756 -3999.42186 -3998.29042 -3995.68833 -3993.71069 -3991.85280 -3989.99019 -3988.41463 -3988.51463
-297.71505 -297.61505 -297.06535 -295.10890 -295.22088 -292.09557 -290.70381 -291.34419 -285.20370 -279.19543 -280.83033 -287.42319 -285.95900 -282.48664 -274.99049 -277.21951 -280.82314 -279.93425 -283.03459 -259.70193 -259.52009 -255.71807 -237.46832 -191.13265 -175.75638 -176.59541 -167.07262 -161.32027 -120.78391 -5.31986 93.57975 204.19906 196.60893 215.96832 320.97020 577.50305 683.22603 760.63518 773.11343 775.82275 773.85211 773.65495 753.98726 757.12813 695.44936 715.33678 746.80642 757.97187 660.79283 600.97050 490.95480 466.72682 444.99282 407.59004 386.28133 372.80701 354.87861 314.62292 265.65787 244.84045 196.98776 179.16425 157.23043 124.02407 116.72647 101.45279 95.84765 116.58705 138.67756 211.36821 312.69145 353.62208 380.69447 390.14423 412.70395 467.05946 552.03023 645.44250 594.14808 504.87404 452.38020 435.24970 396.86554 352.22530 334.63611 328.92405 323.87647 324.65350 328.07292 340.55487 354.48541 370.82613 408.65153 416.05519 420.62844 417.40723 404.46131 410.26174 435.88526 443.42497 401.95495 364.63820 320.20967 158.41849 -47.78801 -47.62925 -95.62518 -129.92178 -165.98134 -197.30638 -222.69694 -284.73313 -607.42788 -862.65491 -1802.58249 -2432.29525 -3190.43943 -3617.92397 -3953.83685 -3994.22542 -3998.25193 -4000.45693 -4002.44624 -4004.07248 -4004.86796 -4005.95401 -4005.98366 -4005.89198 -4005.80694 -4004.85797 -4004.51454 -4003.60997 -4003.31500 -4002.79382 -4001.73540 -4000.57684 -4000.00164 -3998.17217 -3997.01162 -3994.08730 -3990.73948 -3989.38843 -3989.48843
-296.86647 -296.76647 -296.41589 -295.53920 -295.09934 -294.67039 -293.76468 -293.04951 -290.16959 -288.32246 -287.76026 -289.13699 -288.66010 -287.79362 -285.22857 -283.26810 -283.12094 -283.97036 -283.79658 -283.24268 -279.07188 -275.84034 -269.91412 -260.34129 -245.76443 -244.37940 -228.42741 -224.76672 -215.72612 -183.56066 -50.75558 45.31625 57.38981 153.89378 312.43441 553.51671 707.99041 757.13235 771.81439 772.79738 772.01132 774.69631 776.84704 777.67885 823.73622 864.03811 897.62544 874.43978 825.34058 754.61040 651.27562 548.01836 557.38758 541.40308 471.81962 431.89935 353.87029 316.30843 267.19274 219.69253 174.40878 152.91850 140.95034 130.43243 125.61306 115.39380 102.64871 116.44614 140.27763 193.13758 269.94912 290.69665 316.89754 382.32770 407.51541 461.30400 609.74063 712.65431 665.51657 510.92720 450.44022 444.74045 394.15568 366.87223 333.97381 329.11515 323.85553 323.99593 324.94124 339.23080 359.37320 379.03216 409.42398 419.05144 414.69650 386.73627 338.46099 355.05923 378.25851 397.71384 439.13183 445.22568 392.59659 248.50244 159.70423 120.08200 35.05186 -110.04501 -107.54596 -148.63109 -181.58533 -211.20994 -246.17022 -499.08697 -941.72183 -1783.94105 -2350.92754 -3442.18855 -3837.97098 -3974.52704 -4000.85450 -4003.15953 -4003.91914 -4006.12444 -4006.73062 -4007.58495 -4007.63062 -4007.45351 -4006.93720 -4006.45030 -4005.32707 -4005.22522 -4004.69407 -4004.17288 -4004.05972 -4003.54786 -4002.26407 -3999.74203 -3998.13006 -3994.44772 -3992.15329 -3990.08583 -3990.18583
-296.76395 -296.66395 -296.05083 -295.35405 -295.04986 -294.52999 -294.02419 -293.05734 -291.71578 -290.77026 -289.75714 -289.33636 -288.25768 -287.25886 -285.65250 -285.13999 -284.14884 -283.94910 -283.83412 -283.42431 -282.90807 -281.43643 -278.18359 -275.61481 -270.77199 -263.08853 -259.18223 -255.85877 -231.17853 -203.55316 -151.82651 -83.13915 4.06739 121.00743 248.36274 460.15417 666.28310 751.94665 772.19236 770.68820 768.33927 773.28412 788.78006 838.87632 905.52227 1095.75800 1104.92106 1137.63086 1059.33123 923.70549 745.26431 683.31123 621.04491 611.64856 587.59903 511.30563 399.13075 315.09029 293.26512 245.09522 211.77954 181.62152 183.62819 185.74813 195.35986 171.59343 157.23728 160.49334 154.11477 200.84931 225.35838 255.26511 313.59743 340.81191 389.66538 480.44371 603.45176 689.89907 698.01087 518.81075 445.19540 439.77166 418.01826 387.50788 341.82387 332.94295 324.33401 322.53366 324.77757 338.55983 366.19468 386.31602 409.38177 416.33395 399.65144 376.82950 272.98260 259.01786 279.84428 324.08338 373.43885 458.85495 525.24954 428.93149 376.86248 240.91923 72.84039 -24.31289 -83.42535 -90.10952 -180.46491 -208.58303 -225.76367 -249.06395 -545.90374 -770.39944 -1699.59973 -2942.38147 -3686.41348 -3957.58961 -4000.64923 -4006.28963 -4008.31673 -4008.59875 -4008.75710 -4008.98290 -4009.32355 -4008.97523 -4008.72590 -4008.05642 -4007.79577 -4007.43179 -4007.04566 -4006.58687 -4005.81696 -4005.61584 -4004.34954 -4002.40659 -3999.91080 -3997.60639 -3993.97625 -3990.78954 -3990.88954
-297.02683 -296.92683 -296.16318 -295.28129 -294.78094 -294.32927 -293.74422 -292.65688 -291.61209 -290.68170 -289.87226 -289.22793 -288.15484 -287.19742 -286.17703 -285.09586 -284.50787 -283.93776 -283.40470 -282.95389 -282.18906 -281.39318 -279.57823 -278.77908 -273.16370 -269.87321 -263.36092 -255.69419 -240.49425 -222.99430 -167.58993 -108.51432 -43.08148 108.87647 269.04767 521.39691 693.31131 755.53635 771.11306 767.30477 768.35387 780.58524 801.62136 905.02812 1063.91396 1232.95673 1349.60367 1334.71527 1258.66829 1150.74737 885.38062 743.46387 694.56505 669.17723 621.50715 522.29485 430.35268 366.12979 307.37748 284.89412 280.89038 257.02468 261.82607 282.79731 275.32704 255.76266 245.17954 230.28894 232.30786 245.43191 245.62264 254.22836 312.19695 334.24184 374.61070 489.51242 610.48421 701.87074 664.80802 549.28491 458.43071 438.76930 424.98690 381.58725 352.50611 339.09618 322.58435 322.55573 328.30872 344.90467 369.06896 395.88762 414.44771 405.19130 349.84320 306.92720 242.64046 224.56118 236.19977 253.17450 318.08580 470.87120 593.97373 589.71900 567.94264 424.50793 151.55954 52.86053 -31.80970 -84.44303 -126.75394 -162.30095 -206.82899 -207.74261 -263.53740 -493.78304 -1532.27483 -2562.99903 -3660.71123 -3927.98353 -4001.32016 -4009.43217 -4009.75398 -4011.00685 -4010.83141 -4011.11311 -4011.28055 -4010.37430 -4010.30403 -4009.99248 -4009.92757 -4009.92249 -4009.35998 -4009.79495 -4009.10733 -4008.65399 -4007.35496 -4004.80096 -4001.72305 -3998.44025 -3994.31964 -3991.33219 -3991.43219
-297.67303 -297.57303 -296.73186 -295.95060 -294.89668 -293.94575 -293.67786 -292.54930 -291.65770 -290.79332 -289.86736 -289.16906 -288.42570 -286.90438 -286.12944 -285.58617 -284.87571 -283.73488 -282.96490 -282.13182 -281.73346 -280.99438 -279.86782 -278.13225 -275.75028 -272.78926 -263.21452 -257.58450 -242.59518 -207.49186 -161.03191 -81.67133 -28.12538 89.70621 315.50360 546.86914 666.15718 759.63042 769.40560 766.94581 774.38503 791.32176 817.38184 915.24075 1113.71029 1315.79859 1407.07139 1419.40846 1345.82462 1234.92130 1078.76724 828.66233 715.14103 686.25286 641.37290 561.41218 487.40775 451.37884 382.66199 350.97102 367.50122 339.28221 338.61499 350.00799 342.18333 314.10193 300.34907 304.70454 301.31580 300.70591 315.20041 300.74103 323.34865 349.15689 370.27311 513.68546 599.57572 732.59127 717.11356 543.88120 466.89318 435.07786 417.80189 381.80343 369.58631 336.13697 323.35974 324.21472 329.15119 348.13148 377.50334 406.84590 418.66402 383.76980 315.89947 248.69854 212.69286 206.49922 213.54262 228.61461 270.51928 402.87694 560.49415 628.67759 599.34913 433.72318 358.71123 198.78920 10.29379 -70.01264 -108.95865 -124.67920 -166.61247 -193.04825 -254.47508 -425.20396 -1291.19072 -2648.40056 -3574.68867 -3913.81933 -4001.11930 -4010.87477 -4011.89897 -4012.14099 -4012.78865 -4012.58007 -4012.65519 -4012.66351 -4012.73357 -4012.86614 -4011.95299 -4011.79056 -4012.44145 -4011.88546 -4011.42934 -4009.67987 -4009.31770 -4006.62337 -4003.25863 -4000.11675 -3995.68338 -3991.87767 -3991.97767
-298.87192 -298.77192 -297.44396 -296.12483 -295.25852 -294.23721 -293.62307 -292.75255 -291.59547 -291.00115 -290.45274 -288.84255 -288.25621 -287.28959 -286.52188 -285.52732 -284.39449 -283.37134 -282.64036 -281.95785 -281.54653 -281.03787 -279.78846 -278.01349 -275.61047 -272.01601 -264.58329 -256.13252 -250.73502 -181.73122 -130.05409 -55.47214 32.80890 88.69866 257.73495 464.73429 735.51990 767.19089 767.70575 769.68204 786.93954 811.41581 846.84495 972.03527 1141.18841 1378.09427 1464.69461 1474.40500 1433.07670 1338.93730 1169.07512 968.45927 772.08011 696.64392 658.73718 611.41192 568.45097 516.54966 427.12296 397.03601 401.13755 398.97101 401.22832 394.40208 385.53289 386.45680 380.36358 379.90250 383.92580 378.63854 370.66463 364.62771 352.36401 375.46175 403.41104 501.87309 586.80007 725.23066 682.10592 560.47574 478.75043 436.34452 408.74296 392.60510 372.78270 336.50389 324.15953 323.38829 330.14376 349.59276 382.75104 401.63265 408.68662 371.07593 249.54206 214.24004 195.35915 195.94975 202.17005 212.32519 264.54640 340.48134 542.85723 639.49260 609.31269 537.14721 407.65568 195.84203 130.72416 34.67331 -85.42436 -126.80852 -137.44104 -189.71321 -234.03790 -436.48891 -1443.32409 -2374.43540 -3543.62772 -3894.44358 -4009.33995 -4013.05669 -4013.53817 -4014.10132 -4014.55060 -4014.51388 -4014.37834 -4014.95309 -4014.63943 -4014.35443 -4015.21989 -4014.90448 -4014.17933 -4013.92917 -4014.12524 -4013.32721 -4011.65231 -4008.77142 -4003.97136 -4001.54697 -3996.39320 -3992.27993 -3992.37993
-298.88387 -298.78387 -298.07674 -296.87128 -295.69184 -294.62278 -293.71240 -293.17991 -292.12285 -291.36933 -290.57751 -289.54786 -288.40108 -287.44660 -286.74571 -285.75467 -284.88996 -284.26139 -283.49731 -282.78880 -282.06223 -281.24449 -279.60644 -277.31971 -276.23818 -274.94870 -261.98911 -255.59296 -164.16641 -91.03742 -51.38731 4.39817 152.48935 263.58903 426.64081 580.28201 748.94001 775.90688 772.65548 791.08355 804.27160 820.40755 849.46413 965.55571 1175.03014 1374.08147 1475.69596 1479.29793 1461.70014 1401.53906 1196.19520 1020.72894 803.25238 701.65923 687.47598 657.21193 632.90114 559.37371 554.41842 563.07770 515.20948 461.42982 428.31575 425.48258 416.50079 398.15575 395.55962 393.62137 386.19236 371.37309 349.90834 340.66659 322.99343 359.15768 378.17503 504.06934 590.17226 717.89209 709.19106 568.20217 459.88008 393.75390 393.85162 398.80780 371.12164 337.73109 324.59492 321.65652 324.83859 349.15286 383.27287 404.37282 386.13922 342.30207 214.50051 176.18811 170.54717 178.42802 171.80650 187.23605 264.42005 343.91848 527.89564 643.77911 594.91073 472.57580 374.72987 272.19712 159.46706 79.30830 -18.86853 -104.63116 -124.02263 -184.49911 -240.40240 -408.92332 -1401.61284 -2383.78431 -3489.72994 -3881.25929 -4006.17616 -4014.57553 -4015.02634 -4015.32822 -4015.45224 -4016.27541 -4016.48150 -4016.61708 -4016.91165 -4017.51525 -4017.75151 -4017.78056 -4017.48075 -4017.33469 -4016.04821 -4014.89962 -4013.27557 -4010.16881 -4004.98208 -4001.00517 -3996.28839 -3992.57059 -3992.67059
-299.03946 -298.93946 -298.48680 -297.32115 -296.31609 -295.25294 -294.04307 -293.28936 -292.61542 -291.67927 -290.65287 -289.98387 -288.70088 -287.86442 -286.94535 -286.19411 -285.48518 -284.44583 -284.05533 -283.30340 -282.95695 -280.82936 -274.35079 -259.89925 -269.00802 -262.03056 -241.02053 -192.72036 -136.95837 -84.70313 -37.57479 62.77914 221.86371 354.11055 533.15806 651.76485 751.37310 746.05367 786.46783 798.02927 813.92149 880.31691 936.88084 1041.39351 1270.29251 1393.11021 1465.16521 1480.62475 1480.35388 1439.90690 1347.42723 1062.27009 856.41654 726.54161 698.78635 690.31734 655.16032 616.51011 641.25546 602.29657 565.21983 535.88879 480.34246 456.60733 439.47241 410.41366 392.14359 384.16141 350.83771 321.25546 297.42517 226.21639 265.05301 260.09810 335.91339 444.26258 558.50547 710.44550 685.05544 598.83269 400.12215 339.72599 345.02433 363.44080 360.33312 343.83819 327.99581 322.19766 322.00710 340.58910 363.29585 390.47557 383.13621 327.31646 223.47420 146.19314 126.17894 114.73970 116.50801 156.80283 276.11599 400.88029 572.69215 625.81936 540.83579 408.37046 280.81185 213.65170 190.64619 104.48395 7.91742 -51.46160 -114.16960 -159.00532 -261.69959 -424.13290 -1349.47271 -2548.82937 -3548.02533 -3868.92784 -4005.30064 -4015.78716 -4016.35859 -4016.64350 -4017.26428 -4017.71874 -4018.00186 -4018.64119 -4019.37794 -4019.41597 -4019.85298 -4019.78233 -4020.02043 -4019.86782 -4018.24652 -4017.17771 -4015.10523 -4010.95580 -4005.74435 -4001.53668 -3996.42282 -3992.82116 -3992.92116
-299.29121 -299.19121 -298.49966 -297.86158 -296.81567 -296.14269 -294.54759 -293.71164 -292.73406 -291.98147 -291.32421 -290.12415 -289.17192 -288.07500 -287.16242 -286.31877 -285.61010 -284.74690 -284.39278 -284.07051 -283.40215 -280.12440 -261.22619 -252.44248 -234.36762 -209.72824 -173.30325 -116.99345 -103.79740 -52.44499 -27.21036 76.50200 289.93673 469.33371 629.68693 703.47378 762.11146 773.92406 794.85346 799.93130 894.73486 1025.47214 1062.95468 1115.35251 1252.06328 1335.21411 1451.07347 1475.70332 1478.44989 1458.10959 1397.31303 1139.91982 928.68546 745.36143 703.13285 695.40476 669.44302 677.56733 679.76683 659.78270 622.35556 608.52342 556.18353 523.90569 485.13018 408.91997 377.46164 312.68947 269.52366 212.69950 187.84409 163.45402 168.76856 195.73072 217.19094 332.97339 488.29567 643.54954 681.19614 562.73228 409.96311 282.63505 259.71498 329.62300 324.72714 323.61039 331.12536 324.19747 317.30554 325.67939 350.05088 375.52204 356.11692 321.44992 205.33741 142.51051 121.63422 110.89245 95.56691 140.55050 231.40175 377.38510 576.68913 618.92784 491.10740 313.35845 261.63885 213.66228 189.75968 157.99960 73.60243 -11.36471 -88.38790 -140.91966 -213.56988 -364.83007 -1016.91500 -2249.08031 -3082.45718 -3874.26201 -4010.49496 -4016.95574 -4017.40430 -4017.66511 -4018.26636 -4018.67071 -4019.84941 -4020.06472 -4021.02271 -4021.52821 -4021.68827 -4021.85685 -4021.72293 -4021.30290 -4020.53658 -4018.06161 -4014.90370 -4010.19359 -4006.36384 -4002.59590 -3997.03698 -3992.95519 -3993.05519
-299.87237 -299.77237 -299.09508 -298.41903 -297.81155 -296.05005 -295.38993 -294.34572 -293.13931 -292.15070 -291.33105 -290.29995 -289.40553 -288.59520 -288.12320 -286.95010 -286.02465 -284.73646 -284.57060 -283.99053 -276.71368 -266.52457 -236.18685 -201.25151 -175.16807 -148.01445 -119.25975 -81.24330 -50.37798 19.31938 87.24356 122.85778 297.25530 536.38733 640.15172 758.12045 771.45906 789.02425 794.60314 837.39008 900.11337 1140.06895 1208.10198 1183.38174 1200.75968 1299.96064 1396.52881 1470.36524 1479.47979 1474.21532 1374.76501 1133.09903 891.42198 722.58954 703.13787 698.12866 681.22384 683.07693 682.47346 682.07808 675.87136 659.39095 649.50353 607.91587 513.77899 397.02683 318.89054 245.31140 178.02436 142.73014 104.03741 86.80464 99.78383 102.89759 148.44048 236.66717 355.70364 518.62401 585.16850 509.17984 274.09174 219.98504 173.90514 232.17405 245.17221 311.24234 319.05145 307.04543 295.24487 317.85252 329.23920 344.73527 332.34687 269.51927 197.55026 150.77661 112.40612 93.35250 91.08016 132.83637 208.08132 340.05508 509.45559 570.86601 436.90755 281.80485 214.94533 207.80014 191.91958 151.04005 117.12699 32.67040 -86.32141 -145.32330 -216.55966 -465.20046 -823.64678 -2161.40698 -3213.27664 -3906.62738 -3994.46775 -4017.56736 -4018.13941 -4018.77143 -4019.54985 -4020.12254 -4020.84965 -4021.80042 -4022.24836 -4022.77211 -4023.17658 -4023.17067 -4022.98938 -4021.94690 -4021.25677 -4018.80772 -4014.82343 -4012.17909 -4006.08165 -4001.13897 -3997.32732 -3993.04972 -3993.14972
-300.31174 -300.21174 -299.64863 -298.85033 -297.94499 -297.24058 -296.11335 -294.72694 -293.45686 -292.49117 -291.85212 -290.93970 -289.95207 -289.38563 -288.27695 -287.90647 -286.70163 -285.74353 -279.95724 -266.36339 -261.76485 -236.80633 -206.39136 -159.11304 -69.96315 -64.61998 -33.63325 13.95369 100.49775 177.46332 319.23533 263.51524 454.96363 674.74309 705.93743 751.48955 782.46556 794.32703 803.91652 858.94295 1000.30789 1164.98585 1269.32982 1251.81462 1198.59986 1263.33364 1358.65229 1452.15758 1468.78446 1468.47062 1372.91151 1127.42665 915.25427 743.01264 698.43820 689.13617 680.82959 680.92762 683.24546 684.81402 687.44960 688.38843 680.79036 650.09067 532.16628 341.00529 241.55105 154.92215 109.32097 83.61024 74.99198 72.44916 79.03707 81.19350 91.45770 120.29184 229.16490 374.02712 398.02422 289.54946 253.24077 124.55206 105.83461 134.70084 187.13470 276.01091 265.08517 262.49248 289.29410 315.85847 319.31448 327.53517 325.80222 264.13818 195.04169 160.53765 141.24958 80.39718 70.55047 97.28712 147.75804 242.59755 414.89029 458.57336 422.98988 247.31978 187.54812 184.10137 168.90242 144.29395 124.63239 20.81723 -70.78632 -172.53370 -210.60854 -293.67962 -842.54538 -1902.16377 -2920.20241 -3891.55480 -3985.17860 -4016.57644 -4019.05023 -4019.50966 -4020.23247 -4020.82129 -4021.78092 -4022.78874 -4023.29753 -4023.80790 -4023.99361 -4023.98766 -4023.47561 -4022.63749 -4021.18195 -4018.73402 -4015.44552 -4010.27142 -4005.95091 -4000.82655 -3997.35448 -3992.85856 -3992.95856
-300.93333 -300.83333 -299.94666 -299.03440 -298.21305 -297.56811 -296.28862 -295.29807 -293.86792 -292.86593 -292.56976 -291.48398 -290.68794 -289.75391 -289.07526 -288.38299 -287.92516 -286.69397 -281.43426 -244.62950 -214.38137 -147.32549 -44.33428 10.80103 -11.05457 14.00337 100.44798 209.22219 288.04264 432.07029 483.15178 538.21276 610.21944 726.26904 750.50856 768.06631 801.68569 802.67030 816.72769 926.08615 1067.70250 1246.62840 1322.55229 1279.84847 1201.70463 1201.62517 1304.90287 1373.91172 1426.78963 1381.53512 1280.97404 1013.72747 853.43663 708.73148 701.15118 683.65117 676.67574 677.79774 681.60136 684.07022 688.23030 686.54645 673.90500 642.40108 540.66796 318.89807 176.79230 112.92964 76.96470 61.16618 57.80355 49.36388 48.79567 53.18006 49.95691 75.42357 101.21622 181.17779 235.05766 190.43039 160.63641 80.69838 93.08572 104.64811 151.96452 235.84953 211.83529 299.54234 315.63809 319.64255 317.02113 322.17021 310.94398 277.77667 209.59104 174.49776 135.58949 74.43277 55.76896 94.02723 122.70450 179.63093 233.16342 362.59022 339.20502 209.05096 155.39795 145.02550 146.58683 125.28952 99.31659 4.78428 -93.95823 -153.21960 -207.83415 -275.18224 -737.06598 -1752.35336 -2999.40830 -3721.21443 -3958.96158 -4016.30670 -4019.60309 -4020.09133 -4020.69895 -4021.41433 -4022.26984 -4023.12974 -4023.75167 -4024.08925 -4024.31914 -4024.07422 -4023.63847 -4022.34279 -4020.30948 -4018.08093 -4013.11869 -4009.78787 -4004.84068 -3999.96957 -3996.96534 -3992.69594 -3992.79594
-301.02420 -300.92420 -300.25020 -299.61110 -298.92327 -297.71352 -296.87282 -296.04137 -295.33645 -293.78151 -292.85673 -291.90840 -291.10940 -290.45847 -289.66431 -289.44210 -288.94884 -281.06023 -272.00451 -220.56200 -123.06853 11.29026 120.77573 200.94706 132.89950 138.96088 214.03224 347.36257 487.33346 615.64016 658.48052 719.69801 675.53446 747.50144 771.08398 793.93816 802.09660 823.01799 872.84422 997.98653 1149.60901 1270.92224 1344.24420 1294.29763 1200.29125 1182.65756 1214.85142 1281.82904 1247.22687 1212.69348 1179.55023 933.11146 782.73058 704.73629 692.44036 674.63297 674.06434 673.89181 677.27853 683.55091 686.06599 687.16718 677.18816 595.95726 502.29186 286.46048 110.68642 98.11595 71.55963 49.39587 48.43705 46.67080 47.35301 47.85067 48.80113 51.44865 51.91776 81.97945 94.81146 80.39417 65.95588 50.81543 81.77555 80.35881 117.20264 127.91608 198.17390 285.36724 308.84159 316.12663 293.22616 311.88460 315.32551 287.77037 243.07852 173.00720 111.45672 66.07382 58.24116 63.82055 89.86663 105.74815 145.10790 207.54763 240.10973 172.74669 110.53688 97.75455 97.70361 106.92459 103.32048 -5.27429 -96.95041 -155.60714 -206.33340 -282.71393 -630.38888 -1670.65487 -2697.26778 -3552.42962 -3947.41167 -4008.71896 -4020.01388 -4020.53149 -4021.28026 -4021.73987 -4022.17003 -4023.02164 -4023.65431 -4024.02308 -4024.01304 -4023.66007 -4023.18172 -4021.09631 -4019.24681 -4017.22727 -4012.50899 -4008.85276 -4004.17392 -3999.61442 -3996.93371 -3993.09129 -3993.19129
-302.08173 -301.98173 -301.16125 -300.02709 -299.04816 -298.18130 -297.78086 -296.59639 -295.78981 -294.20289 -293.10984 -292.05751 -291.59114 -291.91500 -291.68963 -291.15626 -290.64755 -267.76946 -233.00989 -154.67323 -24.12910 126.59869 290.66443 331.88110 230.58345 247.10083 330.21654 550.87115 562.48790 722.84450 735.71060 757.96224 742.55833 768.84142 785.93562 803.45815 810.24000 854.76822 975.82972 1053.77484 1182.31650 1264.67412 1286.60033 1270.97205 1189.15943 1144.20329 1117.02055 1119.08856 1039.61819 1026.85163 977.84399 838.76604 725.39083 686.08072 675.77296 671.47584 672.05054 680.63790 686.16491 688.02661 691.42785 698.25678 690.45752 625.26029 383.81440 220.95477 113.71621 71.41554 49.75937 48.49676 46.79056 45.17956 44.94581 44.74103 45.40903 47.65624 49.68242 54.89919 55.07949 53.30350 49.54425 48.46813 48.31201 56.81142 69.69655 110.91130 204.72284 255.70563 283.03680 273.52364 256.02588 283.64842 288.49474 264.54986 229.92642 176.38642 96.35254 64.44809 58.39731 55.19733 75.91506 89.10777 95.94417 133.18487 157.90147 125.15768 104.25095 97.65431 103.28486 114.78510 95.14585 16.14711 -91.82789 -153.16392 -208.19024 -284.65327 -579.81115 -1130.37544 -2464.20612 -3463.91418 -3895.82217 -4009.41832 -4020.19091 -4020.55663 -4021.12334 -4021.59033 -4022.14377 -4022.33397 -4022.98433 -4023.03055 -4022.96720 -4022.68284 -4021.99191 -4020.82647 -4018.29015 -4015.60799 -4012.33290 -4007.59197 -4004.38692 -3999.46475 -3996.98162 -3993.80133 -3993.90133
-302.26912 -302.16912 -301.45930 -300.52855 -299.98902 -299.18155 -298.30395 -297.49814 -296.49605 -295.16248 -294.16512 -292.96671 -293.81512 -296.43629 -298.04608 -297.24720 -294.10955 -265.67283 -191.90223 -49.63509 82.94395 472.08958 465.37302 405.88237 370.16142 402.76743 453.37653 606.26689 724.25341 750.16041 758.96745 759.32849 767.89414 792.62756 807.87392 813.12151 854.35468 969.80893 1055.79988 1120.17661 1179.65445 1211.59181 1237.81436 1211.28082 1177.13601 1124.52089 1072.43754 1023.46485 891.98864 859.63900 798.99990 757.57889 699.44688 679.29193 675.90858 671.58173 673.69973 692.96068 707.06215 705.73332 713.79932 724.67738 705.59713 642.55992 340.56419 241.04193 129.68996 67.16826 54.86688 48.34788 46.59941 44.34899 43.58290 43.47016 43.64221 44.86184 46.61611 47.88834 49.65997 48.34981 47.53018 47.03967 44.91758 48.56115 51.37616 93.81862 111.76374 153.92955 235.34952 255.09936 215.43495 227.55201 223.10045 207.91503 197.86276 150.97621 78.16438 61.26029 57.02997 54.33867 54.29023 65.65548 85.28960 87.25202 104.85455 106.07200 101.25263 101.63810 109.27388 131.55761 87.98962 -12.18360 -99.80773 -140.51161 -205.59634 -257.76743 -340.60585 -1135.73112 -1956.92233 -3395.23179 -3774.64021 -4004.81982 -4019.69904 -4020.39984 -4020.78110 -4021.19893 -4021.54278 -4021.86532 -4021.94498 -4022.13159 -4021.95659 -4021.75400 -4020.12234 -4018.15694 -4016.96660 -4014.10773 -4011.16636 -4006.87939 -4003.44618 -4000.38492 -3997.23805 -3994.97661 -3995.07661
-302.62658 -302.52658 -301.79154 -300.91705 -300.43281 -299.81283 -299.16340 -299.24449 -298.30713 -296.73715 -296.65417 -297.69554 -302.67708 -321.67490 -328.83088 -307.94314 -297.93832 -267.18579 -150.08508 71.23027 430.05307 603.85843 589.64491 553.80862 505.84083 548.00224 598.98186 700.68255 751.74179 759.44268 758.75682 756.01647 786.37015 800.83116 816.64715 843.32054 924.64669 1065.49794 1104.76421 1154.00124 1172.64206 1181.62788 1188.87933 1181.99578 1178.02242 1133.41896 1056.44260 922.42963 793.56073 735.28172 739.46342 721.86296 690.29459 674.91979 673.63632 696.29225 696.74176 713.83313 713.25888 737.75323 787.60259 799.43229 811.14098 753.26947 463.68364 318.22191 215.79773 114.33301 62.23329 51.97331 47.44363 45.01726 43.23206 42.97827 43.00751 43.63560 44.64590 45.35526 44.69939 44.72068 44.50143 42.72483 43.31615 43.91067 48.26736 57.64840 72.41883 93.51893 131.04831 185.17783 178.66172 151.31393 144.86553 118.15744 105.68832 82.33966 60.97580 57.28884 55.20990 54.40147 54.33094 59.07905 72.53425 72.27008 97.53800 97.85300 100.65957 108.28588 121.47473 123.05897 83.80501 -33.04344 -105.18516 -150.22792 -205.20687 -243.18371 -453.20452 -990.40181 -1750.81731 -3101.67502 -3786.37691 -4002.74621 -4012.71245 -4020.04585 -4020.12387 -4020.29170 -4020.41379 -4020.70923 -4020.39717 -4020.50392 -4020.20081 -4018.98333 -4018.91513 -4017.23167 -4015.70036 -4012.71003 -4010.22541 -4007.09129 -4004.14017 -4001.01795 -3998.25851 -3996.73765 -3996.83765
-303.28748 -303.18748 -302.28493 -301.30735 -300.98724 -301.21983 -301.66525 -303.68304 -304.86296 -308.54357 -318.15652 -362.13701 -421.43339 -381.20635 -437.30398 -323.17216 -360.48246 -277.82204 -48.92115 174.09853 571.88257 657.53509 697.96953 677.12520 654.64481 654.43959 693.62975 732.41696 756.12666 759.27927 755.51183 764.66275 798.05938 805.03061 861.77416 974.84219 1046.91906 1107.51856 1146.46851 1165.85038 1166.56703 1170.34951 1172.39566 1174.97561 1170.65227 1145.35342 1075.43331 893.29535 795.21065 724.91542 721.74314 719.19515 692.25370 667.81464 694.10201 709.19251 715.49947 728.20438 765.56599 852.44458 872.49299 981.41781 944.44486 854.49020 713.11241 574.25016 386.20170 241.30994 105.05098 68.84196 47.73422 45.68276 44.07178 42.67786 42.29844 42.18830 42.73467 43.65566 43.49656 43.41870 42.69786 41.63810 41.50338 42.15135 43.39843 46.08109 57.67466 66.55153 82.84954 109.92531 116.76340 99.97963 81.97985 77.37986 73.55421 56.82890 57.09497 54.53508 54.46716 54.94360 55.86979 57.74252 62.78863 82.52414 97.95022 102.11182 102.58761 106.37888 123.06787 138.66290 59.84138 7.96110 -99.80612 -184.49575 -201.24256 -231.12610 -316.83070 -713.03546 -1678.19382 -3042.07842 -3740.97691 -3954.12023 -4012.70475 -4018.83156 -4018.63605 -4018.76493 -4019.05297 -4018.78216 -4018.70093 -4018.86106 -4018.82297 -4018.08084 -4017.31147 -4015.88602 -4013.82960 -4011.32648 -4008.91551 -4007.65097 -4004.21893 -4001.88678 -4000.48666 -3998.99742 -3999.09742
-305.00177 -304.90177 -302.90517 -302.42044 -304.86943 -307.00852 -308.37003 -313.24781 -348.94229 -392.02485 -414.99291 -458.04407 -675.68050 -776.44623 -669.09829 -569.40417 -704.07515 -526.03767 -120.42557 222.16366 565.14751 708.98830 742.35774 721.64399 724.88927 741.09125 749.99673 756.21619 754.78775 755.74282 757.63386 780.96518 789.12730 841.41270 989.93749 1015.85814 1107.34581 1150.43754 1163.28218 1164.89003 1165.90082 1166.36506 1166.98921 1170.62946 1169.95678 1138.46342 1040.47640 861.12458 765.34751 724.66296 719.38872 690.79308 675.73174 691.67069 721.17837 757.16427 753.44802 809.77252 904.22031 957.83612 1036.77963 1085.63392 1105.69013 1100.79682 949.17329 822.66101 740.75970 454.51983 215.36477 91.41862 49.34609 47.01719 44.99577 43.31009 42.49580 42.11471 41.87610 42.17583 42.60204 42.18617 41.86167 41.03143 40.41671 40.31259 41.09140 41.82264 43.58935 49.01780 49.85963 52.63431 72.90951 74.67731 67.26302 59.75807 54.79674 53.05989 54.21788 55.01322 57.86309 57.63160 60.84394 64.23567 66.02855 92.96647 104.44273 108.02001 106.67869 110.03498 118.52716 121.14083 92.22167 -1.07818 -121.46176 -173.57281 -216.13113 -239.01602 -284.53970 -710.96511 -1624.39305 -2771.14877 -3720.04534 -3963.66999 -4011.62240 -4017.88064 -4017.59771 -4017.54847 -4017.28102 -4017.02170 -4017.71423 -4016.71046 -4016.84293 -4016.65219 -4015.74399 -4014.04710 -4012.60773 -4010.83171 -4009.19918 -4007.11238 -4005.15034 -4004.54578 -4002.53489 -4001.73551 -4001.83551
-311.59745 -311.49745 -314.64852 -322.60545 -331.79550 -344.78313 -394.35462 -393.87060 -509.29866 -654.23683 -859.82167 -912.69410 -1474.86351 -1908.65670 -1497.17692 -1505.12812 -1419.63560 -891.68487 -290.25738 47.38081 453.95224 642.16296 743.66144 736.94239 750.61046 759.45151 760.25476 759.00746 755.88209 754.94077 763.67535 786.06150 811.35202 924.97613 1023.84040 1106.45980 1133.33470 1163.17039 1164.01025 1163.77413 1164.84439 1165.47972 1166.84899 1169.81264 1169.28502 1129.17904 1046.29545 858.75084 767.69820 719.56216 698.65196 667.79643 680.55373 700.43336 780.06547 837.92442 892.18133 968.64190 1002.88036 1067.83665 1114.37566 1154.75541 1165.77155 1151.98155 1098.03867 1039.78639 928.07302 531.69381 283.41123 140.24070 55.20364 47.27943 45.50261 43.89974 42.98883 42.06897 41.72484 41.64174 41.69976 41.72409 41.41736 40.51133 40.15679 39.61369 39.63756 40.20857 41.35986 43.55974 47.28721 46.45174 45.79329 52.58542 51.46951 47.65590 49.61139 51.70760 53.97111 58.80384 63.27768 71.10828 73.95171 72.14207 87.18016 107.40467 109.60914 111.09677 109.03314 110.40919 117.17537 101.48054 50.24779 -31.81754 -128.89108 -167.00323 -207.30463 -230.83826 -254.68890 -1100.63260 -1828.08422 -2624.53679 -3655.05019 -3974.02956 -4004.79652 -4016.41109 -4015.59487 -4015.48939 -4015.52466 -4015.97503 -4015.53213 -4015.91178 -4015.41833 -4015.03778 -4014.14859 -4013.38852 -4011.99256 -4010.75110 -4009.35870 -4008.06978 -4006.37869 -4005.58616 -4005.43491 -4004.95191 -4005.05191
-380.11545 -380.01545 -416.73579 -446.11183 -479.30654 -545.07009 -653.47970 -730.30559 -793.69880 -1315.78361 -1729.44169 -1914.30237 -2315.43467 -2741.69901 -2774.20294 -2920.42159 -2584.37067 -1866.49335 -848.24856 -136.38622 205.27443 451.07442 666.80558 708.69963 729.87326 748.69793 760.01342 760.64536 756.60942 764.74626 777.07639 797.06027 854.01172 945.79763 1059.70098 1141.30062 1155.68553 1163.61484 1163.67603 1163.53690 1164.36661 1165.76280 1167.08512 1169.63428 1162.27389 1117.42772 1035.05014 860.41587 761.72551 717.67024 689.74966 664.78222 692.43395 748.50326 894.35609 967.41647 1029.11288 1064.44819 1123.57413 1150.53804 1170.55937 1174.96381 1182.24916 1182.04123 1177.87162 1143.63468 1071.54259 703.78456 318.69894 147.68490 57.09885 49.21733 46.59861 44.82642 43.91732 42.78440 41.87241 41.56482 41.45543 41.40575 40.98072 40.55217 39.82614 39.39351 39.03055 39.15903 39.54848 40.86234 42.04059 42.59387 43.79575 44.12557 45.19392 47.40760 50.28843 56.15322 64.78849 66.53182 75.01812 83.19069 94.77595 96.93447 113.38114 114.46966 116.48034 113.35368 109.10980 111.18210 117.71966 117.59067 59.09366 -24.54299 -126.40288 -171.72408 -215.04776 -236.53170 -410.34099 -896.54438 -2012.89668 -3142.67666 -3852.47237 -3967.41616 -4013.37316 -4014.21330 -4013.63755 -4013.75489 -4014.42465 -4014.18063 -4014.28934 -4014.38907 -4014.45211 -4014.20196 -4013.47348 -4012.78640 -4011.83841 -4010.81292 -4009.98348 -4009.50981 -4008.98481 -4008.49306 -4008.27743 -4008.55802 -4008.65802
-689.96542 -689.86542 -769.85203 -974.14889 -1042.36774 -1066.55288 -1270.51116 -1618.24389 -1815.58150 -2166.57290 -2709.49062 -3205.68122 -3304.13392 -3430.94402 -3667.98468 -3653.71239 -3190.51396 -2744.92557 -1704.42449 -786.94525 -130.49337 292.52120 417.20782 518.37339 630.16772 694.26435 745.82788 753.53028 752.29343 769.38972 789.77247 796.13952 876.75625 957.20734 1069.24642 1125.91853 1159.80396 1163.87702 1163.38285 1163.23891 1164.02388 1165.70991 1168.30257 1168.63474 1155.29916 1132.90380 972.22730 861.11355 718.20897 670.97852 616.65045 640.94873 697.90609 802.03833 913.06319 1051.94671 1115.60035 1139.21517 1161.05103 1173.80036 1177.67374 1179.42466 1181.81228 1184.46051 1185.50549 1167.02792 1043.37130 861.13846 376.81890 153.33109 79.18836 50.55995 47.78167 46.14340 45.07439 43.67328 42.57067 41.77881 41.53038 41.10989 40.65121 40.27480 39.66196 39.18340 38.87595 38.88038 39.02564 39.56357 40.42092 41.90874 42.34047 43.48453 45.23805 47.90539 51.74381 67.17945 77.50060 91.93442 98.04889 100.41909 110.81883 110.73029 120.13559 120.79085 117.70173 111.67379 107.01432 108.57572 108.28565 105.34052 43.24783 -16.20644 -115.62693 -174.62142 -219.00023 -264.11081 -514.11970 -1214.87284 -2438.60875 -3410.93981 -3832.57888 -3986.58117 -4012.82094 -4012.66933 -4012.52009 -4012.24131 -4012.50657 -4013.25152 -4013.25313 -4013.56359 -4013.83364 -4013.41892 -4013.08539 -4012.75185 -4012.29799 -4012.13265 -4011.53731 -4010.84136 -4010.41189 -4010.87153 -4010.87624 -4012.47737 -4012.57737
-1497.38023 -1497.28023 -1700.03351 -1694.04230 -1786.98504 -2080.47222 -2279.48042 -2602.92729 -3007.91853 -3380.26700 -3343.20219 -3721.76222 -3821.80039 -3926.55102 -4030.77404 -4027.36653 -3795.42726 -3383.07518 -2696.84769 -1468.66468 -579.00729 -63.46113 91.93181 344.41827 495.18487 617.00672 718.13409 700.45963 726.44942 766.05979 791.27323 792.61775 952.33351 1034.00496 1110.95894 1145.32742 1158.86380 1163.22614 1162.89177 1163.29565 1164.48155 1166.02499 1168.83283 1168.48683 1144.57730 1082.14005 933.48538 765.46200 655.48637 631.35563 553.15690 620.32756 635.81861 745.52286 878.71190 1050.39271 1119.04912 1163.20051 1173.03839 1176.60737 1177.26817 1178.37342 1180.19529 1182.83340 1183.03741 1158.86460 1080.20563 811.46029 652.58281 323.20254 173.95586 100.39081 77.98571 86.94970 60.23786 44.77206 44.06948 42.40133 41.78669 41.15480 40.89975 40.27930 39.85602 39.36633 39.04037 38.94188 39.09055 39.30344 39.84528 40.99850 41.97548 43.71089 46.98373 50.94285 64.27561 79.26675 89.76661 110.70645 118.58949 126.57196 125.61680 125.99526 125.55434 120.24165 116.19014 109.31728 105.32325 106.90092 107.93319 101.81963 91.47382 27.93735 -120.20616 -166.65829 -211.98625 -330.13007 -682.70278 -1535.49757 -2714.61733 -3552.27677 -3913.03607 -4001.86015 -4010.92114 -4011.21948 -4010.90470 -4011.38532 -4011.73003 -4012.19878 -4012.79031 -4013.07940 -4013.49262 -4013.46668 -4013.47120 -4013.22933 -4012.97706 -4013.36458 -4012.72300 -4013.16113 -4013.83836 -4014.30011 -4016.94674 -4016.78454 -4016.88454
-2657.07325 -2656.97325 -2610.32204 -2839.04504 -2768.49466 -3233.74280 -3317.01128 -3556.21512 -3593.57229 -3803.55631 -3968.37453 -4022.69788 -4031.13685 -4078.39876 -4081.18695 -4069.47989 -3974.99347 -3667.31671 -3184.44375 -1871.89121 -1021.21873 -315.39756 -77.53123 61.98344 246.79324 352.70817 504.67903 639.68540 717.78102 760.55079 791.89922 849.62264 989.28594 1056.42311 1126.41019 1160.23590 1162.22442 1162.60175 1162.91473 1163.51865 1164.90291 1166.34051 1167.22553 1160.68917 1108.67232 1020.25800 894.09355 657.21077 561.15392 466.99584 483.67361 561.54560 570.82390 672.05146 781.83974 991.85991 1099.28702 1154.80063 1172.55929 1175.99543 1176.22162 1177.15735 1178.82890 1181.25075 1184.65064 1180.51890 1149.52806 1009.14083 799.49714 525.41071 392.10099 253.55057 154.52411 95.07624 85.58425 47.48107 46.21900 44.48750 42.84343 42.05374 41.39165 41.08577 40.57921 40.06437 39.68598 39.27535 39.27421 39.43503 40.14852 41.21146 42.84653 44.21003 48.64749 59.26742 83.29755 95.58606 111.87013 123.80631 125.85788 130.49426 130.25639 128.08185 122.58174 116.60800 109.34420 104.97652 104.79792 105.21847 107.25759 93.29738 79.42629 -0.57745 -81.82697 -161.02551 -212.59716 -341.32543 -1114.16259 -2011.53107 -3076.48907 -3776.86556 -3950.73979 -4005.29493 -4009.57149 -4009.63164 -4009.89052 -4010.65136 -4011.04960 -4011.74146 -4012.52561 -4013.20291 -4013.77456 -4013.80200 -4013.97348 -4014.33772 -4014.86079 -4015.58683 -4015.54301 -4016.05124 -4016.84811 -4018.16457 -4019.14219 -4021.08105 -4021.18105
-3590.69204 -3590.59204 -3562.81638 -3439.27036 -3603.87238 -3772.49535 -3785.11162 -3904.05501 -3994.71475 -4066.77197 -4068.73715 -4090.73501 -4092.69307 -4093.92749 -4094.11885 -4093.18333 -4073.26677 -3914.07925 -3584.10994 -2516.60520 -1361.19146 -431.51153 -239.75237 -166.37789 21.99412 118.53256 352.65393 580.01750 676.00048 737.70007 802.14942 877.18710 1034.28561 1103.13825 1157.43363 1162.54235 1161.39634 1162.92459 1163.34800 1163.44130 1164.17986 1166.23530 1164.83024 1147.26906 1082.93533 977.25047 796.39219 579.24666 432.63739 413.34951 385.24288 381.74087 474.97328 539.37126 660.40481 889.36290 1082.94735 1138.42106 1153.42167 1174.06875 1175.83663 1176.36827 1177.99360 1179.81594 1182.58444 1184.15376 1173.27290 1117.49813 1002.10804 814.69847 710.10731 474.34883 356.90559 191.68871 95.75345 70.42042 47.57944 46.10510 44.20545 43.96517 42.79015 42.70660 42.12849 41.15520 40.49215 40.01366 39.72349 39.93651 40.95974 41.74229 43.39372 47.43073 51.48061 73.87639 86.79597 101.44677 119.01207 129.02959 132.50939 143.65928 149.69111 138.60286 128.42025 116.14212 106.56242 103.45500 103.35682 104.96570 105.66721 88.08838 49.52044 -15.82579 -104.03695 -149.11482 -203.02267 -523.31163 -1472.61880 -2479.59076 -3372.38812 -3926.45174 -3988.10689 -4005.93665 -4008.57887 -4009.03785 -4009.52903 -4010.15465 -4011.18100 -4011.80083 -4013.10317 -4013.59281 -4014.42430 -4015.20857 -4015.80369 -4016.73735 -4016.64538 -4017.22168 -4018.17178 -4019.32973 -4020.26167 -4020.32505 -4023.26889 -4025.40899 -4025.50899
-4006.78659 -4006.68659 -3957.12693 -3941.72563 -4001.98847 -4045.07895 -4046.99498 -4089.31771 -4088.32235 -4093.16575 -4098.47686 -4098.93986 -4097.92559 -4096.73788 -4096.41408 -4095.51790 -4090.55723 -4029.63044 -3720.15331 -2880.64280 -2025.13357 -901.71512 -458.05367 -263.97266 -162.98872 -90.24172 148.72885 426.04826 555.91672 740.53848 791.97215 901.75047 1040.42158 1114.29222 1157.57742 1160.14927 1158.22232 1161.24843 1163.25134 1162.71369 1163.81924 1164.36184 1157.37485 1123.20828 1040.27211 923.90916 707.45854 547.57767 385.72227 325.96773 344.95576 350.57848 383.87780 428.44280 593.68926 743.26065 943.14284 1066.81496 1151.32413 1172.38243 1175.67074 1175.90467 1177.03989 1178.19066 1178.55775 1180.89571 1181.93953 1162.58746 1113.40848 1046.41277 935.63861 708.18741 620.72699 448.86135 231.26956 129.35413 64.46510 55.55518 46.33291 45.93062 45.07064 44.64406 43.72558 42.81781 41.81802 40.97064 40.10264 40.23816 40.94119 42.43101 44.64593 47.66265 53.55217 75.41178 95.78632 116.04706 128.92358 130.29536 143.39148 157.25639 165.14479 147.19748 131.21538 122.57029 105.66691 101.71354 101.26493 103.00192 108.74444 108.62248 69.20134 -40.50726 -90.62012 -159.43481 -234.25760 -871.71681 -1711.50042 -2885.07941 -3665.59106 -3887.76184 -3994.86208 -4007.15042 -4007.74532 -4008.54178 -4009.32109 -4010.18451 -4011.41228 -4012.62501 -4013.45348 -4014.60965 -4015.18532 -4015.99012 -4017.80819 -4018.33244 -4019.35987 -4020.26017 -4020.93278 -4022.17585 -4022.78517 -4024.67159 -4026.24723 -4029.48238 -4029.58238
-4104.63947 -4104.53947 -4091.99497 -4085.99181 -4092.99805 -4099.79680 -4098.80221 -4099.21963 -4101.56943 -4100.66410 -4100.03593 -4099.42208 -4098.65731 -4097.78802 -4096.92114 -4096.14281 -4081.59216 -4026.62843 -3667.71765 -3257.46267 -1972.34014 -946.76617 -423.21091 -263.99033 -201.94039 -196.56840 -60.26150 186.92030 403.23166 616.63982 743.69378 872.48862 1020.14815 1083.60037 1120.90792 1118.17277 1116.19011 1142.19463 1151.03840 1144.64293 1137.14035 1140.62468 1115.39814 1068.80149 979.38692 849.49995 708.99538 522.87113 389.09327 316.49844 316.20369 327.17224 330.04003 378.53241 484.81723 642.14020 829.48461 1062.29411 1157.71017 1174.51414 1175.56970 1175.51402 1176.50630 1177.33950 1177.92609 1178.43556 1179.22539 1176.71240 1168.09937 1150.67858 1114.26268 1081.48422 930.31625 593.42460 386.82270 167.10164 89.82562 76.72158 59.01820 48.08353 48.69287 48.55194 46.68656 45.82395 43.34183 42.38194 41.23548 40.61217 41.45350 42.87301 45.95905 47.97221 58.02439 81.77074 102.55159 122.21050 132.21648 142.90615 165.32031 172.77233 176.62064 165.27908 135.51852 122.44841 109.68115 101.04968 100.43533 102.24114 107.46479 103.95775 66.43011 -27.66741 -67.34825 -109.33453 -218.65958 -720.94129 -2047.08316 -3132.20399 -3613.00014 -3963.42716 -4005.87844 -4007.03855 -4007.83858 -4008.80928 -4009.55482 -4010.61659 -4012.09703 -4013.37772 -4014.67355 -4015.50240 -4016.84852 -4018.32757 -4018.89237 -4020.50385 -4021.26496 -4022.24270 -4023.53181 -4024.79361 -4025.87959 -4027.95015 -4030.01422 -4032.97642 -4033.07642
-4106.82547 -4106.72547 -4104.48277 -4103.97108 -4103.63628 -4103.33988 -4102.97917 -4102.49647 -4101.77092 -4100.85864 -4100.56015 -4099.53697 -4098.91144 -4098.32984 -4097.27367 -4095.44770 -4078.26046 -3894.38980 -3599.11463 -2897.41156 -1827.58676 -834.69847 -443.69236 -272.63997 -246.62906 -232.08386 -121.81877 21.52409 220.40413 453.10296 628.47641 830.22690 931.77569 1000.41428 1061.50248 1076.98779 1074.06314 1074.55685 1094.32364 1092.57065 1072.05852 1053.96302 1057.28174 954.19900 896.62539 805.53416 672.78106 481.86883 375.13535 314.19244 315.16572 316.32249 314.00722 324.65062 350.30624 550.20150 766.02969 1022.25324 1143.12666 1166.64609 1170.41065 1175.28012 1175.96628 1177.06914 1177.59299 1177.66726 1178.65248 1180.22607 1181.35110 1173.83682 1166.18142 1130.74165 1071.00280 823.00729 463.01826 257.23561 164.49420 115.52928 91.55144 66.88896 67.92265 61.76933 53.87317 48.02766 46.78647 44.22207 42.27352 41.59012 41.60974 43.24243 46.21275 48.72771 60.64702 81.78641 113.04527 123.16649 144.78955 178.42231 196.43522 234.17902 257.15511 203.84105 145.86423 121.02030 104.11833 99.59455 98.98132 100.23300 102.81869 100.93756 87.56007 40.53456 -47.99686 -120.91327 -378.97844 -792.13767 -2142.30961 -2933.15510 -3729.20228 -3950.62311 -4004.17745 -4007.08836 -4008.48721 -4009.25183 -4010.44892 -4012.19300 -4013.53740 -4014.78900 -4015.65305 -4017.99925 -4019.02137 -4020.55341 -4020.33084 -4023.40020 -4023.64118 -4025.07429 -4026.68683 -4026.74585 -4028.63673 -4030.31237 -4032.44453 -4035.92045 -4036.02045
-4105.89006 -4105.79006 -4105.32353 -4104.74106 -4104.25147 -4103.82255 -4103.05190 -4102.45324 -4101.79600 -4100.91893 -4100.28620 -4099.66782 -4098.81068 -4098.04287 -4097.23012 -4091.76074 -4067.45405 -3764.42140 -3336.33431 -2486.09286 -1389.92298 -830.16362 -403.23852 -303.49233 -280.88670 -233.84045 -178.43433 -147.74070 31.37528 201.18542 538.73814 708.27597 838.30921 919.91297 940.99741 998.78094 970.35006 977.51114 981.19645 988.09050 972.02332 955.42304 918.13665 813.63681 755.98291 682.53998 599.68514 448.84275 368.20111 313.67201 313.36414 313.27805 313.14222 347.06530 374.90424 493.31586 675.28424 977.54329 1049.32313 1134.51931 1159.43405 1175.09069 1175.73334 1177.72143 1178.09421 1177.75674 1178.32580 1176.88521 1177.40134 1162.50960 1147.01481 1103.80644 1038.81915 846.30314 532.99836 402.66172 287.18126 225.25611 184.26206 163.01108 118.21890 185.67955 122.47901 72.80459 48.98996 45.80412 44.00294 42.51168 42.24642 43.90865 46.53737 49.21894 67.54948 106.56512 121.38179 134.34579 159.43937 187.23838 223.34368 296.30005 305.92213 249.52389 143.21846 113.63350 103.68990 99.30318 97.47905 98.96872 100.28629 107.10585 105.41270 81.00514 -16.17744 -107.21998 -166.37375 -735.08759 -1675.55219 -2735.74343 -3729.05513 -3942.56860 -3991.72139 -4008.08340 -4009.34380 -4010.40593 -4012.28638 -4013.34995 -4015.25245 -4016.38369 -4018.28599 -4019.81216 -4021.21582 -4022.10368 -4023.90807 -4025.16030 -4025.45706 -4027.04025 -4027.86629 -4028.91837 -4030.13867 -4032.65222 -4034.51127 -4038.00526 -4038.10526
-4106.21804 -4106.11804 -4105.66605 -4104.87370 -4104.41315 -4103.68475 -4102.81955 -4102.43123 -4101.50012 -4100.86030 -4100.09192 -4099.64234 -4098.82724 -4098.02053 -4097.41420 -4079.65579 -4001.30496 -3737.62348 -2772.20785 -1838.11853 -1123.06154 -446.81753 -385.45434 -301.85401 -292.94114 -273.79354 -243.02561 -185.36791 -47.59185 27.87580 326.20717 524.79351 738.39611 792.21480 837.83491 847.24740 861.16092 874.93964 889.31886 868.04360 835.97646 834.96885 776.27136 727.78701 671.65740 519.71062 457.61723 393.90555 331.16914 315.15066 317.47375 316.39736 350.11204 366.15849 388.76732 472.56373 619.00934 855.23842 1007.40006 1105.41940 1125.65383 1150.74164 1170.35520 1175.10989 1177.99224 1172.92553 1169.79008 1176.03780 1153.09179 1113.81605 1057.59651 977.64444 901.62985 736.45319 665.64600 516.40411 464.09142 385.01669 351.41811 304.87968 350.66910 366.21748 239.65423 168.99348 74.41952 47.95229 45.54396 44.33920 43.42228 45.04018 47.14051 50.99889 91.50194 119.05358 138.65435 151.69563 164.01261 188.42669 268.98536 326.72647 324.77638 214.80628 164.30055 122.60983 103.36921 97.20663 95.36017 96.03082 99.93339 106.35668 103.98500 47.67273 -22.67102 -91.99045 -165.61418 -689.24893 -1425.17411 -2739.48565 -3376.41653 -3844.53531 -3957.31728 -4003.64441 -4008.57930 -4012.63679 -4014.28070 -4016.02186 -4017.42989 -4019.54080 -4019.89728 -4021.61864 -4023.19377 -4024.92947 -4025.84599 -4026.34818 -4027.84804 -4028.50895 -4029.08781 -4030.14049 -4031.46136 -4033.13974 -4035.58433 -4039.60417 -4039.70417
-4106.42130 -4106.32130 -4105.69608 -4104.98066 -4104.26737 -4103.63899 -4103.03581 -4102.08313 -4101.54985 -4100.83978 -4100.08679 -4099.45582 -4098.56269 -4098.00619 -4097.26986 -4078.57401 -3965.14904 -3532.16393 -2536.62748 -1712.83280 -835.78293 -428.40016 -357.06766 -304.62207 -294.83638 -278.76285 -270.63562 -238.09280 -185.97485 -32.29620 163.53184 479.25245 607.16993 728.95508 761.56961 755.95534 704.32523 696.81259 724.27985 704.58953 672.79317 636.97174 631.85372 613.39361 490.77359 418.53617 350.96253 330.32036 314.73972 315.33973 325.02530 333.61265 352.56614 456.15254 463.31779 564.37158 718.82966 842.15248 950.81845 1034.34575 1080.45743 1096.38899 1146.04363 1152.26777 1163.65724 1161.19544 1122.56086 1110.55341 1116.66560 1050.17613 901.11278 819.38606 793.46713 727.37968 676.25688 635.92419 575.47911 534.00790 541.64676 574.40313 662.61552 553.31089 439.93957 244.23754 85.33829 55.68321 47.83107 46.09470 46.19339 46.81746 49.18963 62.64731 109.10318 128.48533 158.57195 193.36177 196.94839 197.33387 276.23856 317.01953 256.82119 155.84027 155.44779 122.59628 100.86790 94.91562 94.26504 94.68886 98.18410 102.25297 98.77947 72.21685 10.26746 -82.93777 -163.49429 -524.82596 -863.35723 -1871.77216 -3169.84356 -3505.14998 -3799.09024 -3997.46631 -4005.58192 -4013.86218 -4016.08868 -4017.53461 -4018.75808 -4021.15300 -4022.40164 -4024.07215 -4025.46698 -4025.97030 -4027.87219 -4028.62897 -4028.77762 -4029.35018 -4029.89119 -4030.69867 -4031.80796 -4033.67075 -4036.34916 -4040.39123 -4040.49123
-4106.32181 -4106.22181 -4105.42746 -4104.92176 -4104.11450 -4103.37866 -4102.61304 -4101.75182 -4101.21821 -4100.41492 -4099.93854 -4099.04298 -4098.38536 -4097.69629 -4096.93476 -4073.24780 -3930.91623 -3613.78250 -2504.49288 -1948.85034 -1052.59329 -690.86892 -368.75916 -313.13005 -293.49718 -286.70704 -276.32335 -254.79181 -224.83830 -142.01725 -48.61195 211.49505 519.79456 655.01193 700.35346 595.95124 495.53303 510.97269 530.23529 548.29792 555.36565 430.02769 376.98085 376.14999 399.86062 319.74195 284.01948 318.83947 332.55705 350.27890 391.00766 419.25257 459.80609 523.26407 604.68492 748.34732 835.29264 929.54867 930.66039 947.34825 970.86335 984.42665 1028.18976 1098.13527 1078.49743 1076.90086 1057.34100 1061.01667 1007.14230 934.22832 798.37430 761.33697 714.03279 690.08928 687.97080 669.84475 665.87993 657.26399 658.62004 708.87526 733.80406 684.35005 437.61449 231.08437 103.65866 53.62036 48.56339 47.71802 47.72367 49.53785 54.29025 96.25729 153.35750 209.00865 231.66948 213.05142 221.54501 207.56173 269.77221 264.95632 210.67411 155.26983 138.92430 102.94265 93.82231 92.40814 93.53599 94.57995 96.05159 100.67304 104.78615 75.00163 -1.25168 -100.47250 -144.60027 -183.61809 -556.79546 -1516.44126 -2160.75856 -3095.23114 -3522.26575 -3821.58270 -4002.70013 -4016.48760 -4018.00446 -4020.18572 -4021.57312 -4022.92876 -4024.55081 -4026.22877 -4027.04569 -4028.17387 -4028.98023 -4029.18776 -4029.55140 -4029.68797 -4029.92575 -4030.70019 -4031.66035 -4032.86175 -4036.43426 -4040.64662 -4040.74662
-4106.06311 -4105.96311 -4105.13353 -4104.64625 -4103.71756 -4102.89428 -4102.23403 -4101.44009 -4101.05154 -4100.15242 -4099.34705 -4098.68443 -4098.14839 -4097.40608 -4096.28508 -4085.89340 -3996.73128 -3879.64983 -3349.85894 -2418.42651 -1529.11057 -998.99207 -490.88620 -323.85395 -307.41527 -291.83524 -282.82788 -277.82619 -250.51421 -208.26696 -110.15216 45.50079 282.99668 611.24823 572.30089 469.60731 268.74005 209.76780 279.29143 257.21024 252.76280 287.95385 250.27798 197.76403 242.49055 226.12858 236.18911 348.35945 399.46589 437.06133 493.25814 553.59667 581.11644 675.61624 794.26164 925.42779 959.09509 1021.82345 989.51868 948.58996 901.39531 863.59624 903.75475 949.03934 927.10615 890.53896 892.30805 827.82027 844.88840 790.98654 732.34502 697.14941 686.56146 679.05501 675.10248 660.46594 626.61698 615.28747 614.56644 677.88197 747.56919 609.80168 414.56217 194.74683 96.64976 54.82538 49.47023 48.50471 48.71019 54.60116 74.78654 117.92205 220.13890 301.72141 335.53959 285.91325 241.41382 221.19547 198.76925 177.32863 148.17153 147.53878 118.91383 101.32861 91.32791 91.76214 92.72325 93.38560 94.77983 98.15050 105.14708 91.68364 22.22770 -42.98935 -142.24263 -190.83264 -465.11292 -730.76206 -1416.33402 -2011.66750 -3165.31902 -3669.32602 -3963.01271 -4016.07098 -4020.81241 -4022.32081 -4024.19410 -4025.24945 -4025.79226 -4027.68287 -4028.62425 -4029.12830 -4029.35727 -4029.35701 -4029.36699 -4029.13258 -4029.31181 -4030.05457 -4031.11119 -4032.59882 -4036.20072 -4040.43871 -4040.53871
-4105.72711 -4105.62711 -4104.94953 -4104.09624 -4103.28735 -4102.84270 -4101.94674 -4101.19555 -4100.20515 -4099.76667 -4099.07452 -4098.36739 -4097.49640 -4096.80552 -4096.34891 -4095.29596 -4059.64434 -3965.07903 -3658.66642 -3271.04915 -2328.19873 -1693.52727 -1120.34513 -405.10266 -337.24026 -296.00089 -287.57034 -284.37705 -277.13413 -225.41906 -164.81319 -76.21240 176.49733 440.79109 471.30263 213.80427 98.34140 41.74322 33.90281 37.61970 95.33858 76.97274 52.31919 53.30052 101.46155 134.80633 323.65446 428.54377 499.12854 544.71352 590.86264 611.99807 681.22236 720.28630 886.42066 1019.71163 1089.24458 1090.58476 1044.97272 958.15590 882.89771 827.29942 810.89887 805.29154 815.96249 794.61662 757.39947 735.58890 730.56002 718.46553 696.20739 669.61361 665.34560 647.01048 610.57788 585.22361 557.80892 549.23858 525.98757 537.77934 548.37949 387.18599 297.58501 133.05239 62.10248 50.35896 49.88453 49.45704 52.70482 72.16407 114.63036 149.76158 259.55870 405.93353 470.40512 401.92240 236.29434 204.76656 168.86684 145.89772 130.67254 125.20418 103.87407 97.85804 90.84362 91.54607 91.72764 91.44455 93.78629 95.32728 102.01646 103.44714 57.45292 -17.30046 -100.65992 -172.31930 -200.46911 -379.10978 -930.86411 -1854.99189 -2853.53216 -3450.71539 -3914.37511 -4017.48141 -4022.44980 -4025.06198 -4025.37826 -4027.03805 -4028.45448 -4028.77259 -4029.26230 -4029.61574 -4029.57842 -4029.26849 -4028.77402 -4028.60216 -4028.22914 -4028.62982 -4029.23503 -4031.16237 -4035.45390 -4040.11182 -4040.21182
-4105.34688 -4105.24688 -4104.67202 -4103.80825 -4102.95862 -4102.23117 -4101.50950 -4100.64872 -4099.98963 -4099.41020 -4098.60493 -4097.79011 -4097.09527 -4096.54350 -4095.63873 -4094.99614 -4080.35585 -4056.00195 -4002.27693 -3782.34843 -3108.23674 -2224.56156 -1391.16445 -762.50528 -452.06220 -296.01126 -293.03948 -289.99272 -276.56047 -248.82484 -213.52122 -105.91073 -15.74224 190.87531 252.17476 81.69742 -71.71024 -148.05048 -124.22802 -74.30340 -56.75123 -15.68759 -11.99489 12.78571 85.23432 181.01608 392.20193 528.07018 605.77406 638.92188 638.22057 680.07420 758.58454 855.18118 1016.03044 1113.28357 1145.59995 1151.45755 1121.44587 1063.62269 960.83961 864.46161 778.78161 745.96112 720.76001 705.20779 702.86776 695.05230 680.22524 654.08073 637.95968 633.74708 623.41868 599.36790 558.11372 502.55489 430.81673 405.20025 369.36565 389.46894 401.21578 234.81685 186.58533 86.43385 50.83443 50.13548 49.66056 68.69608 85.97193 86.51527 134.37366 237.02352 382.77361 489.99637 512.95032 382.92236 246.73368 215.40047 178.31829 128.50293 107.93670 102.23522 93.01839 88.50560 89.75296 90.58436 90.38112 89.82933 91.59549 93.92963 97.44883 84.74919 54.94431 26.91263 -60.66671 -137.68406 -184.59664 -354.54393 -633.76293 -1249.42084 -2538.88999 -3517.90943 -3886.30110 -4004.54167 -4023.63482 -4026.21621 -4027.68829 -4028.40145 -4029.43300 -4029.66503 -4029.78584 -4029.35158 -4029.22360 -4028.36400 -4026.93910 -4026.51015 -4025.77639 -4026.06266 -4027.40957 -4029.97742 -4033.56721 -4039.71737 -4039.81737
