-5016.80934 -5016.70934 -5018.28886 -5018.29141 -5021.50296 -5019.57403 -5018.58573 -5020.62888 -5016.35499 -5015.64947 -5017.66197 -5020.89580 -5017.68061 -5015.10664 -5010.68511 -5000.63290 -4972.94650 -4678.47619 -4281.29260 -3467.53148 -1955.28884 -1354.93372 -1075.84537 -996.49480 -897.71460 -690.06883 -547.41817 -512.20113 -428.16250 -411.29941 -337.74903 -294.76601 -266.08959 -190.59102 -144.73721 -114.83795 -108.24885 -83.22181 -68.52794 -42.15768 -37.78076 -34.74855 -35.56557 -10.88649 -1.59844 19.61544 32.17156 46.82028 49.10827 72.61767 82.31535 94.18679 119.46100 141.20503 166.94925 184.53624 201.81952 250.45705 258.92548 319.36643 348.42190 411.19212 463.35641 534.80788 536.73131 541.53009 529.27351 493.63461 460.39068 435.28170 403.32197 379.72688 373.02883 369.82367 384.96115 401.73934 416.44405 438.18925 462.16459 496.89568 524.50922 544.09010 575.15046 599.30513 620.26635 631.11629 632.91286 635.23085 615.93195 577.81970 545.91948 511.13598 473.79161 477.71171 451.11782 423.12059 392.20174 353.29138 332.74893 294.53493 273.40663 226.89735 153.03962 113.28216 66.14760 41.29626 -5.46516 -52.76693 -84.38552 -157.44887 -214.62107 -684.62558 -2086.94835 -4048.23799 -4345.18694 -4427.63110 -4042.16455 -2885.48969 -540.55165 -129.18873 -139.96825 -536.83572 -1213.39876 -1694.37742 -2577.27021 -2894.05598 -3157.15509 -3195.21045 -3206.76180 -3214.12041 -3224.92971 -3230.49481 -3240.17629 -3249.49812 -3255.24714 -3265.34488 -3271.17163 -3279.69172 -3290.70120 -3299.92357 -3305.83763 -3314.74271 -3314.84271
-5029.69636 -5029.59636 -5029.62375 -5030.41082 -5031.60990 -5032.61556 -5033.55360 -5029.83913 -5034.43379 -5031.77582 -5027.14658 -5027.33004 -5023.45424 -5023.04330 -5020.76577 -4998.55904 -4917.61063 -4658.85124 -3726.82624 -2837.65026 -1866.91726 -1257.44922 -1116.58701 -1045.77213 -990.99923 -837.90162 -701.59024 -551.95089 -469.63855 -450.10019 -383.24734 -366.91358 -320.79292 -267.53325 -174.95559 -152.07606 -124.81048 -106.04778 -88.19373 -80.98543 -73.62967 -54.24159 -41.25661 -36.36485 -31.48530 -5.73421 1.44608 13.00515 35.12364 50.48374 70.73401 83.02432 122.64391 127.86113 156.89848 177.71005 192.99122 240.73589 265.33273 300.40969 327.34859 387.40481 439.60668 471.05615 516.45747 510.56560 509.52522 518.40728 478.44499 453.13963 407.33976 377.52411 366.74411 370.53775 374.59189 391.33700 411.69747 432.95451 455.91032 481.09519 514.61504 543.69117 561.71751 585.65671 610.34703 616.56480 621.38152 618.76852 591.86371 557.13129 529.97153 485.95236 454.05901 451.72932 406.04169 368.90336 352.60128 310.21048 300.20660 259.35493 214.30392 190.33432 153.75877 102.06031 52.99423 12.36114 -20.86007 -50.17471 -105.37056 -180.28265 -289.97952 -812.30206 -1558.26524 -2854.65415 -4522.45291 -4696.94572 -4419.31607 -2846.42469 -1378.74023 -362.52058 -337.67469 -912.48218 -1384.32591 -2071.78140 -2778.58463 -3126.48153 -3165.44572 -3195.08098 -3210.02420 -3218.40895 -3225.60337 -3235.90962 -3242.57042 -3249.09805 -3257.78102 -3266.09527 -3271.82689 -3280.93914 -3290.38790 -3299.17649 -3306.18748 -3315.75389 -3315.85389
-5039.68807 -5039.58807 -5039.15723 -5040.89734 -5039.95958 -5040.17899 -5039.55929 -5038.85627 -5038.46959 -5037.09696 -5036.56587 -5033.76426 -5032.21495 -5030.34651 -5026.75091 -5004.35514 -4890.14358 -4461.01552 -3490.23811 -2698.41951 -1728.95598 -1294.29785 -1181.64421 -1072.72760 -1003.22532 -852.38869 -778.99671 -716.94553 -575.71655 -474.82735 -431.00525 -388.26744 -359.24291 -300.60093 -234.80313 -168.63482 -161.14157 -145.66303 -115.92727 -116.25011 -109.05990 -93.22285 -63.62414 -44.44659 -44.38477 -18.78969 -9.06299 7.40285 28.08570 34.36519 55.63940 67.85116 100.54973 128.76659 151.73227 166.46558 199.30140 224.83333 250.40904 291.70316 323.36392 353.36154 408.80205 415.50723 445.24009 453.91474 438.78203 427.03735 443.18880 412.00152 371.43940 355.08032 357.18595 362.15013 367.79594 376.64366 400.38421 422.72101 447.03351 466.60777 485.27841 538.31928 553.96727 573.10037 588.83996 594.41349 583.49408 570.63269 553.81890 544.59024 514.85881 484.79877 450.81421 424.30051 401.70581 364.81249 313.35727 254.84723 272.55852 233.10360 187.00029 132.86149 132.00266 89.89954 23.52646 -3.92236 -43.44314 -85.29345 -150.64539 -184.32345 -493.41494 -917.75073 -1674.48993 -3586.01288 -4806.18729 -4901.79814 -4823.58112 -4059.04085 -1908.84339 -1226.90010 -1294.45685 -1418.93992 -2142.98864 -2234.88904 -2797.75927 -3145.56253 -3167.69775 -3185.14985 -3214.92950 -3224.92924 -3232.20369 -3235.98538 -3248.01643 -3253.78503 -3259.75781 -3265.53375 -3273.25313 -3283.90511 -3292.69981 -3300.22314 -3307.04419 -3316.74136 -3316.84136
-5048.18201 -5048.08201 -5048.08022 -5047.51436 -5048.55514 -5047.36526 -5049.06816 -5047.57486 -5046.78637 -5046.20727 -5042.77073 -5043.40629 -5039.50396 -5037.91409 -5036.24157 -5010.75921 -4862.08301 -4547.31980 -3458.10476 -2913.14670 -1835.16128 -1416.96695 -1193.66391 -1091.02822 -1008.34904 -963.83429 -882.22581 -814.29475 -728.60953 -602.12689 -518.71567 -460.66906 -354.26120 -312.74266 -262.80677 -232.71832 -194.83107 -181.95168 -155.78326 -134.85137 -120.07085 -120.44254 -107.12107 -74.99042 -58.33162 -34.13697 -20.34724 -4.86653 10.05935 36.49053 52.55446 69.05511 91.04714 118.11551 141.25984 162.62392 187.97268 220.34780 234.17973 267.94642 313.78896 330.82691 344.85268 385.55706 388.18437 385.71783 398.69723 407.35349 394.57897 372.63263 350.08150 344.48571 341.64589 343.11293 355.70663 370.27442 383.60869 408.93003 442.59370 469.08383 482.40919 511.98512 545.05026 558.09524 574.16126 577.96913 562.37474 539.94590 508.78098 497.73510 493.17517 452.75878 418.57379 388.59961 373.51102 367.96496 304.31486 251.88924 242.76160 207.07641 186.89813 124.96206 113.55738 79.23963 16.66250 -13.97335 -54.66610 -120.25880 -162.35505 -322.70208 -654.90585 -1445.86388 -2551.94379 -4401.13669 -4888.93635 -4927.20751 -4879.10910 -4465.94552 -3921.71814 -2594.94558 -2619.13420 -2644.63157 -2448.02012 -2879.62913 -3005.56714 -3165.24754 -3180.80081 -3190.17051 -3215.08060 -3225.22605 -3237.60715 -3245.04779 -3251.31000 -3255.20483 -3262.93351 -3268.03814 -3275.81660 -3286.03802 -3293.15455 -3299.12871 -3307.96244 -3317.72979 -3317.82979
-5056.17260 -5056.07260 -5056.62198 -5055.09202 -5057.85591 -5056.18539 -5055.51045 -5054.75547 -5052.20447 -5052.15646 -5051.78141 -5050.45086 -5047.84415 -5046.05410 -5043.57570 -5029.65641 -4938.17509 -4820.55259 -4294.52254 -3365.09704 -2160.70108 -1561.69559 -1355.16791 -1152.46580 -1098.35196 -1024.90869 -961.12077 -929.00593 -829.92440 -704.68754 -591.92573 -488.80371 -400.84463 -338.52308 -321.38714 -279.96049 -237.03316 -220.35689 -200.07294 -165.91957 -150.20637 -134.13943 -110.27235 -91.67866 -72.00416 -54.68577 -33.35608 -17.84417 0.11106 19.28493 43.91345 58.20916 83.67761 111.02894 140.17088 159.74289 193.65406 221.18747 236.75815 276.65725 304.06673 311.75994 322.99846 348.52062 346.43447 342.88385 352.39454 352.31512 362.01082 340.00798 324.80922 324.58008 325.91771 331.22854 346.42585 357.43653 371.98087 399.31461 428.42126 449.70603 479.29748 506.77544 523.99679 537.10087 553.61172 558.67699 556.88659 515.54629 488.74994 441.70897 448.34585 436.16320 381.96519 363.19340 343.83464 330.17345 307.45192 260.95527 211.73653 166.54191 139.83274 129.20733 91.62060 67.46055 10.31805 -32.70701 -98.97372 -173.57528 -256.33283 -460.36701 -1020.20798 -1506.12713 -3354.30754 -4403.75078 -4921.93876 -4923.19538 -4900.19150 -4879.87314 -4650.98240 -4045.95136 -3265.86508 -3167.91142 -2942.47099 -3094.69684 -3161.30600 -3175.55692 -3192.39186 -3208.18781 -3217.81487 -3226.97154 -3237.87853 -3248.75288 -3251.27699 -3258.75291 -3265.84232 -3268.65579 -3275.61403 -3284.88758 -3293.75312 -3300.30191 -3309.45116 -3318.54489 -3318.64489
-5064.02062 -5063.92062 -5064.58934 -5064.06320 -5063.63730 -5062.47232 -5062.01466 -5061.09340 -5064.39365 -5058.51163 -5057.18815 -5056.55346 -5055.28862 -5053.93217 -5049.75143 -5047.49934 -5006.81827 -4911.60324 -4609.24303 -4221.88165 -3222.56849 -2660.03093 -2057.60311 -1268.60909 -1174.06999 -1062.85612 -966.26546 -934.99769 -923.51131 -856.15885 -756.21875 -587.44580 -436.32091 -384.64518 -366.37002 -358.89610 -300.07740 -272.58080 -231.00907 -193.70172 -176.27629 -161.32397 -137.54945 -113.61313 -86.71269 -72.17517 -50.75772 -19.40252 -6.96280 23.49414 35.23157 49.72058 86.37244 100.54711 133.55375 164.02271 182.97011 222.74860 255.28862 278.70050 293.47326 299.36945 302.75596 310.56062 317.20634 320.96630 314.80382 313.09763 318.01261 321.30822 309.74861 309.77247 313.06220 318.15223 328.24100 341.45415 362.39620 382.62734 417.00930 435.61024 457.96430 483.99965 510.82596 528.79108 536.18349 537.13334 536.70191 526.42295 476.45891 403.02931 412.55038 425.76903 367.89694 343.86061 295.42301 283.74422 250.45166 236.00808 195.36853 147.25832 125.77430 109.48258 63.45130 37.70902 -15.16797 -49.19587 -100.42484 -184.11026 -428.40604 -623.81955 -1126.62366 -1626.85057 -3594.06884 -4577.42807 -4916.20086 -4899.69600 -4907.70463 -4900.05512 -4838.48624 -4318.35350 -3599.75938 -3203.75093 -3058.26914 -3150.73617 -3172.78480 -3187.86261 -3195.92651 -3214.68257 -3224.75517 -3230.26778 -3238.95427 -3246.85083 -3249.80600 -3257.37850 -3265.40837 -3268.94469 -3275.28193 -3285.20216 -3294.57121 -3300.29748 -3309.87634 -3319.52996 -3319.62996
-5071.72854 -5071.62854 -5071.81154 -5072.09916 -5072.55727 -5071.12746 -5070.77422 -5069.09849 -5068.91491 -5067.22132 -5065.02963 -5065.37673 -5059.76546 -5059.45377 -5058.21920 -5054.09320 -5037.71962 -5010.10105 -4956.76611 -4739.90737 -4071.41500 -3185.33849 -2364.63436 -1689.73927 -1333.27050 -1072.91649 -1029.53951 -1006.72692 -952.28396 -929.11262 -864.78169 -694.60202 -657.56942 -542.74766 -439.43078 -394.09933 -370.26244 -303.46985 -257.60683 -237.82734 -216.53372 -185.06528 -164.26588 -134.59277 -104.03354 -86.42859 -71.74679 -23.05195 -13.48328 10.27461 35.76514 47.35407 82.19277 94.75065 127.79998 171.03183 200.13039 253.93875 299.17625 303.29080 286.80906 287.67372 289.76949 292.64899 290.09411 292.02812 293.79748 302.43051 293.32514 290.49252 293.21828 299.31980 300.61277 310.16594 317.59378 334.59877 357.03723 377.79447 396.07130 423.53985 451.98480 474.10607 485.20468 510.95264 520.66872 522.50607 518.64642 491.74859 454.54939 423.23469 336.41045 356.31951 319.03296 317.80399 280.01137 250.60013 241.18757 179.43145 165.60838 138.92511 113.15630 90.35321 62.41382 5.83363 -45.30235 -82.33621 -150.77125 -226.50709 -518.82651 -806.83171 -1292.43965 -2254.83323 -4039.00589 -4387.11579 -4870.98545 -4904.97390 -4888.40680 -4889.03173 -4877.29127 -4737.69685 -3940.20809 -3159.19987 -3168.74129 -3182.50475 -3170.15965 -3190.57924 -3207.17098 -3219.62192 -3229.11937 -3234.08496 -3240.46077 -3249.38243 -3252.72809 -3257.82014 -3266.87429 -3271.28765 -3278.47747 -3285.37467 -3292.96466 -3300.63081 -3308.20581 -3320.54770 -3320.64770
-5079.30171 -5079.20171 -5079.32451 -5078.93033 -5078.05562 -5077.07920 -5077.71546 -5077.09181 -5075.22830 -5074.84921 -5074.04360 -5070.65512 -5069.71273 -5068.20320 -5066.08969 -5061.34748 -5053.72675 -5042.87375 -4988.93182 -4773.30003 -4573.01114 -3799.19901 -2760.00875 -1904.83243 -1295.24913 -1144.06062 -1089.97733 -1091.26668 -1085.44903 -1006.18296 -953.96829 -905.62290 -881.50874 -692.66876 -526.25365 -455.00251 -425.54901 -341.42735 -326.70086 -260.44820 -235.84896 -222.00829 -201.37370 -161.06143 -118.89028 -100.26893 -83.03592 -33.03787 -15.55926 13.92380 34.28696 43.17986 81.19027 92.97945 128.02228 195.78287 244.64312 300.09492 318.53561 329.48166 297.07973 281.32079 277.29160 277.08634 272.65245 272.84509 281.21653 288.77450 284.85444 281.65277 276.80586 281.26682 281.47440 296.78540 300.77423 318.68134 348.89697 362.66054 374.34813 400.88632 430.07791 444.49339 474.81680 477.09219 499.37567 500.25205 489.92783 455.21187 422.98262 418.80250 418.61677 343.41008 265.27400 265.57906 251.76291 214.55449 173.09826 168.26066 110.64046 109.84881 92.54556 59.74335 25.83040 -40.95109 -68.37968 -101.99239 -158.95134 -331.99275 -754.08652 -926.94479 -1286.33949 -2603.66888 -4092.99829 -4696.10614 -4846.39067 -4867.28693 -4895.48621 -4896.04420 -4877.41356 -4674.35835 -3796.74146 -3318.42229 -3189.63563 -3186.19065 -3176.75971 -3192.96540 -3211.53845 -3223.67706 -3230.19224 -3237.76663 -3245.82596 -3251.03823 -3255.14402 -3261.01147 -3267.81079 -3274.35529 -3279.01106 -3286.78179 -3290.61319 -3300.67696 -3309.52668 -3321.38813 -3321.48813
-5086.72219 -5086.62219 -5086.16726 -5087.40241 -5087.68283 -5085.99943 -5084.51401 -5084.30692 -5083.11864 -5081.66168 -5079.00657 -5079.26048 -5077.07724 -5073.44354 -5071.45290 -5069.44898 -5067.79139 -5063.21682 -5051.21347 -4973.85709 -4836.28418 -4061.64560 -2940.89235 -2035.15214 -1434.43061 -1284.34648 -1232.71313 -1199.70147 -1180.96338 -1117.67147 -1096.21951 -1119.53905 -997.20942 -886.33389 -714.52420 -633.09707 -498.80033 -459.27028 -361.80044 -294.28072 -273.72480 -256.14622 -213.86973 -180.57684 -140.30637 -116.69000 -96.66960 -61.24212 -19.92728 -1.13728 30.07032 49.91282 91.34517 115.72123 161.66976 219.46229 230.86412 327.89303 361.95043 338.84068 290.19345 264.17285 249.94588 252.32998 259.50439 252.36917 253.58419 264.86488 275.04426 261.84222 262.51555 265.37592 275.14588 276.96588 292.86467 306.23618 327.76522 344.11395 363.63788 376.09468 404.05902 418.63875 452.01087 468.07099 488.29821 482.46359 456.24730 443.67711 427.64696 536.69691 627.62763 481.47354 260.24396 247.49412 221.30365 193.26779 165.12959 125.53597 72.61513 55.85902 40.68257 31.72829 -28.59713 -62.97125 -101.19544 -151.69455 -235.28353 -413.69202 -685.09485 -1180.78503 -1661.82021 -2839.42294 -3979.98092 -4744.99964 -4837.60529 -4883.47551 -4897.61153 -4910.49975 -4867.91145 -4740.11701 -3837.85118 -3290.02121 -3203.95794 -3195.98575 -3185.87439 -3193.56693 -3209.10204 -3221.78637 -3235.95842 -3240.20993 -3246.45537 -3254.82683 -3259.24129 -3263.14540 -3267.58265 -3275.67075 -3279.99291 -3286.66437 -3292.80777 -3301.09351 -3309.38316 -3322.38070 -3322.48070
-5094.10700 -5094.00700 -5094.24074 -5092.38080 -5094.18313 -5093.17580 -5093.38042 -5091.46185 -5090.19022 -5089.20329 -5086.87212 -5085.34755 -5082.51124 -5082.20295 -5077.63852 -5074.60233 -5070.45760 -5068.24688 -5061.97562 -5027.17692 -4706.52439 -4208.73065 -3055.40571 -2114.84981 -1454.63227 -1325.81427 -1278.77437 -1253.50089 -1246.43476 -1295.98363 -1234.37974 -1328.93484 -1202.59449 -1007.47199 -888.25426 -773.84931 -637.10870 -602.83556 -392.57077 -366.20452 -331.55512 -305.59998 -244.96755 -215.55070 -156.15453 -126.69060 -103.18366 -69.71157 -48.75485 -10.08902 24.06575 34.64214 80.60783 128.84785 191.62655 251.73684 286.46832 335.02372 345.18101 305.32779 268.26792 241.12869 237.21185 234.80930 236.18117 241.47226 239.69333 238.03754 236.90895 241.65084 251.97417 256.34875 259.47855 267.27214 275.05727 290.14003 300.58498 328.30174 344.58595 357.56507 387.99455 398.39093 418.62250 456.38725 469.19349 467.39422 435.10030 423.80983 393.96133 502.55078 561.14149 351.98908 256.36682 210.79407 194.95438 162.04663 145.45247 111.54187 96.35051 36.96867 -15.08371 -33.80557 -60.03132 -88.37526 -137.99219 -242.51497 -343.74518 -547.46715 -834.64611 -1151.95749 -1725.63179 -2679.21619 -3934.74608 -4428.50808 -4782.93050 -4852.78661 -4883.47320 -4905.29178 -4773.63745 -4473.13707 -3823.17702 -3315.45606 -3236.12269 -3192.27629 -3180.07349 -3188.07292 -3200.94566 -3222.92206 -3243.65047 -3248.47348 -3251.56229 -3256.95571 -3258.73099 -3266.34870 -3271.14706 -3274.19170 -3282.90055 -3286.76689 -3292.66095 -3302.56395 -3311.58028 -3323.12672 -3323.22672
-5101.40785 -5101.30785 -5101.11001 -5100.26107 -5099.32888 -5100.95381 -5098.52121 -5097.58337 -5096.99806 -5094.32908 -5092.86258 -5093.33644 -5090.76684 -5086.86130 -5083.92877 -5083.09451 -5080.15336 -5076.78230 -5064.96821 -5023.01335 -4513.79487 -4124.55370 -2971.95009 -2069.78465 -1645.58898 -1443.12777 -1581.68412 -1495.82452 -1423.79953 -1602.66404 -1461.18394 -1543.15776 -1381.70666 -1161.95603 -997.98895 -936.67024 -806.99473 -727.07687 -630.62498 -513.14528 -449.90201 -401.81095 -288.12231 -245.81489 -195.45193 -161.59724 -138.34590 -91.23097 -70.33829 -31.11412 18.08433 57.09166 94.06350 122.12765 178.63147 249.48814 295.13438 323.44177 287.81235 258.53344 230.60379 208.17120 221.80026 224.10490 212.22173 208.82427 218.92957 223.02787 222.26267 229.63953 229.80790 235.56837 240.10584 239.96129 254.55309 273.80601 290.90858 307.03153 319.97248 333.47727 371.27229 393.22192 408.12855 429.71483 438.22713 433.08491 416.83076 394.71763 374.75957 329.83274 375.63316 241.09049 233.55309 163.18821 142.15849 112.85913 114.39512 76.61242 56.86900 26.72994 -38.20972 -65.81357 -88.60466 -98.93848 -193.64817 -306.78578 -470.44394 -737.42773 -1087.14971 -1394.39714 -2211.10876 -3001.61669 -3989.46912 -4411.80696 -4646.79825 -4811.30859 -4858.23549 -4884.92878 -4642.22874 -4240.53454 -3845.24621 -3420.16007 -3219.43143 -3167.13707 -3151.00756 -3182.16970 -3203.18196 -3230.29400 -3242.01782 -3251.24193 -3254.82774 -3257.05577 -3262.61757 -3266.84342 -3272.50402 -3275.81642 -3280.91506 -3286.80100 -3291.42402 -3300.03381 -3312.06397 -3324.27804 -3324.37804
-5108.59526 -5108.49526 -5108.89620 -5108.01900 -5107.87179 -5107.13409 -5106.65341 -5104.71761 -5105.07262 -5101.49975 -5100.01859 -5100.50120 -5096.36585 -5093.72596 -5091.44938 -5089.16341 -5086.31438 -5082.77445 -5062.76784 -4939.20512 -4641.12671 -3695.80378 -2788.90631 -2043.42161 -1868.17609 -2048.17695 -1944.64264 -1914.13928 -2165.14955 -2080.94858 -2296.47067 -2382.31670 -2079.68255 -1244.54788 -1088.37921 -957.14918 -850.02499 -804.98127 -753.23065 -724.58538 -634.21132 -434.37612 -321.43690 -249.83808 -225.16633 -177.83117 -139.85443 -101.05044 -76.85556 -42.13725 -3.44116 45.32296 121.50757 183.05514 238.43170 244.36479 237.50377 244.68827 236.77748 223.99328 196.40993 192.51163 185.54455 181.78334 191.42618 192.07812 201.78832 207.63663 208.56525 215.32626 211.24038 214.53339 222.22849 227.01227 235.42137 256.96497 257.54420 281.62068 292.87339 306.27878 332.22113 351.31593 393.40449 415.47685 415.90450 416.65661 409.66384 394.81122 381.64409 485.16786 457.98601 203.21100 197.81580 157.53316 123.54191 93.40084 72.91987 39.50796 -0.28664 -31.32709 -50.26952 -82.95388 -133.19652 -155.11530 -346.02252 -407.71278 -711.77390 -860.05641 -1117.14298 -1473.30436 -2566.75464 -3646.93475 -4241.36885 -4631.81502 -4765.70505 -4805.67982 -4849.44884 -4870.96113 -4584.07596 -4171.16190 -3732.70154 -3321.20445 -3222.77619 -3150.27046 -3157.37361 -3176.46812 -3210.40976 -3232.45154 -3241.48242 -3252.93711 -3256.07890 -3260.25552 -3266.15520 -3268.61892 -3273.79982 -3276.85121 -3280.48606 -3285.78316 -3291.89824 -3298.20346 -3311.50624 -3325.60838 -3325.70838
-5115.54870 -5115.44870 -5114.85694 -5114.07708 -5114.10494 -5110.60119 -5110.98243 -5112.05057 -5111.45429 -5108.75055 -5106.62485 -5104.57893 -5103.75211 -5101.74887 -5098.77856 -5095.13026 -5091.28546 -5088.84275 -5073.85549 -5014.40569 -4640.31619 -4002.23047 -3105.33870 -2611.20307 -2544.05881 -2616.49153 -3006.20742 -2872.39090 -2882.92094 -3038.88163 -3447.84980 -3309.78332 -2456.30588 -1610.86139 -1162.99965 -958.59590 -893.12336 -833.26251 -784.12402 -762.77751 -730.42495 -624.27986 -512.60500 -294.55960 -234.48794 -172.41597 -146.97578 -113.86523 -65.09434 -50.46139 13.18138 63.32612 147.48587 217.13923 247.37774 216.76058 167.35583 158.58216 178.15435 173.97807 165.41004 162.21773 159.24144 160.83699 172.36129 177.71364 185.26480 189.97881 204.67703 196.88286 196.79442 209.46559 209.60608 209.70141 221.16953 233.26176 240.66561 256.23307 267.88903 293.61284 306.00384 348.06592 364.76710 390.04102 400.45331 404.78904 390.06546 391.13921 480.36567 552.95579 375.42931 168.59771 136.09751 133.44937 111.52088 63.20706 18.16158 8.01096 -15.30522 -73.81282 -114.59319 -168.40788 -203.76159 -282.67672 -439.71970 -612.95977 -881.05942 -1153.55491 -1340.36487 -1912.86965 -2678.55356 -3752.33179 -4437.74122 -4680.25521 -4803.70736 -4833.32142 -4870.07849 -4849.71597 -4284.91913 -3687.10870 -3522.61112 -3320.24368 -3188.67123 -3134.19992 -3150.44910 -3177.51705 -3214.62370 -3232.27485 -3243.40367 -3253.91402 -3260.06868 -3264.98297 -3268.15735 -3269.48258 -3273.05754 -3276.28814 -3281.29203 -3283.75236 -3291.23084 -3300.10300 -3311.10846 -3327.06067 -3327.16067
-5122.43341 -5122.33341 -5122.06199 -5123.11650 -5122.39288 -5121.50881 -5118.94298 -5119.30704 -5116.98663 -5117.41423 -5115.07998 -5113.29053 -5109.85919 -5107.57325 -5104.55711 -5102.25158 -5099.05742 -5094.27683 -5086.44949 -5034.24729 -4785.09742 -4420.95307 -3942.15368 -3695.63712 -3654.66132 -3917.82425 -4111.76443 -4286.81793 -4253.47252 -4355.24824 -4222.23802 -4712.89767 -3259.79598 -2045.44605 -1182.46738 -1072.88858 -989.49622 -863.66638 -823.30452 -843.50623 -860.54466 -725.21916 -539.47494 -349.56751 -255.07252 -195.44834 -155.40465 -139.17342 -74.92706 -50.37475 10.29087 92.83238 183.15712 222.66553 190.00706 139.04936 114.60320 117.64988 124.05737 137.54812 151.39966 145.45621 146.37497 151.42842 153.00315 160.02462 165.24645 171.89123 169.48786 182.06813 185.88576 186.37981 192.18326 200.60064 211.00936 212.81910 222.02178 239.91576 249.51327 275.48472 308.02365 328.52325 335.07715 355.61236 368.08969 374.61248 367.82014 442.47794 562.94536 491.78886 222.19291 160.72935 110.64980 81.71396 75.97052 43.65219 -4.09079 -55.88492 -67.56212 -82.42688 -133.53604 -208.32141 -301.58102 -596.30479 -686.86487 -804.07455 -1089.30079 -1444.38993 -1841.28664 -2853.49131 -3948.14781 -4174.18049 -4610.71120 -4733.54100 -4823.57091 -4861.80429 -4899.03085 -4804.30537 -4530.68575 -3848.14295 -3574.76943 -3266.37319 -3144.32396 -3119.80305 -3159.47326 -3187.48387 -3213.55522 -3235.94422 -3245.46229 -3257.36463 -3263.44122 -3265.89539 -3268.29461 -3270.82034 -3273.13926 -3276.88045 -3280.29951 -3283.75544 -3290.25224 -3299.76070 -3311.19207 -3328.66225 -3328.76225
-5129.26818 -5129.16818 -5128.73450 -5127.92738 -5128.00915 -5128.82795 -5125.29851 -5123.74173 -5124.28240 -5122.26803 -5121.81371 -5118.39471 -5116.84352 -5113.44550 -5111.63158 -5108.19532 -5105.77740 -5102.26492 -5096.51594 -5084.65422 -5009.13669 -4709.43913 -4680.00776 -4584.37821 -4425.65933 -4627.15198 -4682.45347 -4715.11463 -4720.41807 -4808.66123 -5034.76321 -5052.73260 -4267.80818 -2391.58778 -1510.55265 -1278.51805 -1069.31803 -918.70339 -890.57634 -898.74952 -872.32506 -770.19168 -515.55790 -397.12885 -292.60199 -210.27682 -180.02858 -142.78290 -103.05602 -56.68545 -14.38364 79.78817 139.72703 170.63109 126.53617 86.60307 93.15891 90.47061 93.02602 96.61379 104.62651 111.79287 130.65650 129.50321 133.03291 140.55960 154.25422 160.96651 164.82093 167.47115 175.46168 181.29353 184.99624 189.50790 187.32839 194.55084 209.58319 219.88367 238.21264 273.15594 292.05427 305.77134 310.11259 329.69332 328.53466 332.68135 334.94940 362.47239 448.49869 332.94226 126.91630 111.15955 62.49570 45.04699 45.94512 8.52909 -34.73154 -49.79447 -116.35479 -118.22696 -196.81199 -365.11224 -571.96333 -873.86875 -893.45558 -1161.21687 -1439.53812 -1738.75158 -3674.20825 -3773.79618 -4560.50393 -4656.86624 -4596.95859 -4717.27081 -4856.59483 -4891.30033 -4897.18363 -4863.18795 -4577.98310 -4190.79501 -3702.77742 -3226.16421 -3105.63153 -3123.93947 -3163.53030 -3196.85152 -3218.28543 -3240.03546 -3248.64159 -3258.23303 -3262.90469 -3267.04949 -3268.50535 -3270.62713 -3273.11390 -3275.05047 -3279.53102 -3283.90165 -3290.28996 -3301.67845 -3311.94373 -3329.92769 -3330.02769
-5136.13357 -5136.03357 -5135.99994 -5136.42513 -5134.55453 -5135.02158 -5133.45507 -5132.09819 -5132.04251 -5128.86575 -5126.52899 -5125.12143 -5122.71752 -5121.20388 -5117.65334 -5116.12475 -5112.92136 -5107.94298 -5105.77691 -5096.11816 -5093.45963 -5010.24002 -4964.23487 -4911.97013 -4941.01553 -4981.82860 -5019.08508 -5030.44876 -5015.77431 -5041.86267 -5108.09917 -5120.41141 -4579.42512 -3783.39640 -2009.66884 -1398.66342 -1231.87429 -1021.51297 -983.84694 -995.11870 -899.19353 -823.91511 -634.73473 -521.51469 -404.69166 -234.02503 -199.39016 -147.31745 -102.91665 -75.00109 -38.26707 52.08287 55.67764 78.98309 68.58488 65.15104 57.81360 60.09935 71.91225 88.74469 80.63227 89.85234 89.21170 108.62990 114.98730 125.59277 140.70464 151.57549 156.92885 160.45817 167.23308 171.11981 174.28461 175.65793 174.55914 166.41943 187.01563 199.98242 223.42462 238.38824 260.97299 277.79320 291.70431 300.15152 309.03189 315.94027 317.88420 364.50715 290.35180 137.73430 96.86486 92.53127 46.01781 20.31593 -6.20791 -19.88008 -77.27875 -98.29561 -144.14427 -210.74420 -313.99980 -614.98244 -919.25339 -1299.86915 -1208.73125 -1622.95186 -1999.25778 -3486.94083 -4523.60361 -4613.89758 -4925.69297 -4938.12026 -4812.05036 -4521.46766 -4613.91630 -4797.02292 -4948.50863 -4838.69536 -4894.63590 -4616.70520 -3692.58552 -3184.68418 -3094.50343 -3118.06506 -3151.85001 -3204.05218 -3224.28843 -3242.17245 -3252.50879 -3257.58186 -3265.12797 -3267.46547 -3269.18442 -3270.59661 -3272.15431 -3275.70809 -3278.00724 -3281.71886 -3290.71985 -3301.45526 -3312.64567 -3331.96375 -3332.06375
-5143.07489 -5142.97489 -5142.13012 -5141.83479 -5142.17825 -5140.55754 -5140.09566 -5139.93549 -5136.84008 -5137.43072 -5136.12162 -5133.82096 -5133.52653 -5128.35304 -5129.92181 -5124.75674 -5121.45927 -5116.22509 -5114.27066 -5109.27915 -5103.00852 -5082.36738 -5083.06720 -5073.29345 -5071.49284 -5048.17477 -5064.06311 -5059.78480 -5052.98379 -5065.35839 -5098.09790 -5113.37866 -4748.15446 -3919.67835 -2542.50246 -1837.62105 -1423.16973 -1235.13197 -1166.84796 -1060.28719 -975.42549 -914.96433 -845.76214 -596.65796 -498.12501 -276.33048 -227.61448 -164.26093 -116.50994 -92.39399 -46.22803 11.11079 16.69961 14.73765 15.06576 20.35217 31.59786 28.59550 16.50656 44.20947 37.80089 47.00615 70.07261 87.17384 96.33564 107.98493 130.46350 143.94857 147.93457 153.61600 151.35584 153.94256 155.51302 154.50910 160.16886 158.53332 162.13488 178.94622 194.48087 225.81537 241.79248 260.05863 275.03667 277.98085 278.36574 272.12208 337.83860 439.61064 282.89752 88.56993 61.31006 45.46245 27.76855 2.64189 -14.32984 -46.09810 -120.05862 -157.17823 -211.93361 -327.93499 -496.54623 -1212.34490 -1629.73312 -1607.25619 -2694.50416 -2540.78584 -3621.09475 -4678.89523 -4890.20772 -5070.69842 -5073.45118 -5000.03763 -4983.23839 -4599.02206 -4591.67698 -4822.55008 -4972.81665 -5156.89094 -4856.97923 -4229.59712 -3489.93790 -3145.14839 -3097.28357 -3119.06286 -3184.24631 -3212.18002 -3232.00302 -3244.43451 -3254.74254 -3259.81297 -3265.84049 -3268.45958 -3269.26031 -3270.25589 -3271.79230 -3274.68570 -3276.65793 -3281.15292 -3287.82230 -3299.05409 -3312.59209 -3333.81010 -3333.91010
-5150.02694 -5149.92694 -5150.43575 -5149.48439 -5149.86490 -5146.83038 -5147.59891 -5145.47019 -5143.98339 -5144.11328 -5141.99915 -5139.32034 -5138.22685 -5137.36959 -5135.73710 -5131.41470 -5129.98910 -5127.09732 -5124.85291 -5120.36654 -5118.95910 -5109.25630 -5106.93184 -5109.10085 -5097.92697 -5091.44567 -5087.51568 -5073.59938 -5062.11895 -5070.95147 -5088.02859 -5110.60212 -5095.33527 -5051.91190 -3626.40241 -2592.99555 -2030.21767 -1512.56343 -1343.45975 -1148.09319 -1023.15340 -917.22820 -828.83041 -651.75735 -438.67579 -328.00523 -249.90855 -181.82660 -138.91100 -117.02157 -83.35040 -40.93569 -34.56673 -48.30248 -21.65129 -16.25981 -7.58965 -6.30827 15.07365 18.36528 18.55203 22.22541 39.32098 56.31898 80.41616 94.03490 120.35657 134.58140 143.26681 145.02917 145.07854 141.10548 143.20308 138.17560 138.97732 142.66084 150.04791 163.80903 188.92857 200.18901 208.38951 230.45401 241.36377 241.58060 248.79842 233.32511 255.83949 361.23728 254.92146 84.69160 40.86923 3.40498 7.79590 -23.04455 -62.61423 -97.31328 -119.54465 -230.77709 -570.04722 -1045.20819 -1098.90201 -1996.39692 -2096.52133 -3455.82268 -4549.61281 -4409.56393 -4363.49798 -5055.37603 -5238.73194 -5254.74804 -4895.91001 -4997.30969 -4970.85383 -4817.87703 -4289.76725 -4472.19892 -4664.82636 -5101.69861 -4947.87786 -3731.58368 -3235.59038 -3105.12077 -3104.49169 -3151.38733 -3186.54072 -3212.27662 -3234.83490 -3249.90554 -3258.13294 -3263.85305 -3268.36094 -3269.04254 -3269.61921 -3270.27838 -3271.68699 -3273.31049 -3275.75080 -3280.03159 -3287.19391 -3298.95224 -3313.86507 -3335.32117 -3335.42117
-5157.03559 -5156.93559 -5156.49004 -5157.88764 -5155.66799 -5155.30015 -5154.30062 -5155.24999 -5152.33266 -5151.86843 -5151.00674 -5149.36384 -5147.40247 -5145.39587 -5143.41293 -5143.43445 -5138.03523 -5134.89677 -5132.55934 -5131.82040 -5129.82004 -5125.22703 -5119.31612 -5114.70559 -5109.42254 -5102.53884 -5100.30757 -5086.54715 -5074.75481 -5075.69089 -5080.02938 -5093.78442 -5111.95920 -5090.97199 -5042.73197 -4315.68202 -3301.67947 -2146.30891 -1573.52019 -1150.38373 -974.33229 -907.34364 -812.11722 -696.63796 -461.27613 -363.55657 -297.64403 -220.63912 -164.43117 -141.08963 -99.88728 -97.20685 -86.26440 -67.00342 -62.22019 -61.60540 -57.70376 -39.20927 -25.17339 -18.01544 -3.17016 -0.22703 16.12197 40.65822 54.23584 88.49914 118.52637 139.76559 136.79984 139.99510 139.88957 136.80883 129.32846 126.29623 126.97055 125.89999 133.57501 140.52972 153.04306 173.93801 202.92763 216.82899 219.80833 219.23534 217.96995 203.78833 185.86146 209.96868 110.82112 56.51882 20.68554 -29.98082 -51.22691 -52.61116 -111.18554 -124.30885 -248.82272 -620.85966 -1250.63380 -1874.01739 -2497.34820 -3381.39485 -4244.51009 -4788.15049 -5168.33057 -5180.28314 -5228.26616 -5320.45395 -5122.65436 -5270.70359 -4896.32046 -4134.28113 -3120.55796 -3184.56247 -2925.87936 -2889.71399 -3864.50900 -4503.85637 -3911.60081 -3374.98518 -3097.30929 -3080.87021 -3109.16854 -3146.72688 -3192.18298 -3222.80303 -3237.80057 -3253.48509 -3262.16049 -3266.24326 -3269.85137 -3270.09184 -3270.12674 -3270.16678 -3271.43269 -3272.68673 -3274.70509 -3280.40982 -3286.95107 -3295.85855 -3315.24344 -3336.64460 -3336.74460
-5164.21286 -5164.11286 -5164.57095 -5163.26283 -5162.59447 -5163.63100 -5162.66562 -5162.05276 -5161.72807 -5159.28869 -5158.90759 -5159.29857 -5156.90640 -5156.71909 -5152.44741 -5153.75335 -5151.23994 -5151.34170 -5147.43130 -5145.57358 -5139.20886 -5135.58278 -5133.96680 -5127.19347 -5121.69946 -5118.00252 -5114.10437 -5099.02512 -5092.21086 -5082.19642 -5081.26067 -5086.12849 -5096.10134 -5085.41169 -5052.41253 -4757.96800 -4244.51869 -2650.42496 -1890.06361 -1069.38806 -987.25666 -924.48702 -864.02603 -729.06153 -537.63887 -394.03052 -296.01418 -238.83813 -222.98400 -176.22371 -137.64647 -134.08641 -123.47724 -88.96021 -88.17719 -90.42881 -88.10889 -72.55895 -54.07109 -45.82068 -27.41140 -20.26699 -7.24148 11.63974 26.68332 50.33284 91.81681 128.07563 145.41006 142.81623 138.27591 136.90004 109.41834 108.49003 104.96690 112.24511 123.21729 130.66139 137.21766 154.38151 186.51791 197.45411 202.35992 208.20915 187.30619 172.14941 147.94124 186.14469 119.09022 33.94310 -1.80873 -48.37447 -68.20604 -140.68873 -293.94611 -346.81086 -1002.30877 -1094.60555 -1828.20586 -3456.36813 -4387.46864 -5235.42317 -4935.35754 -5214.52233 -5202.24292 -5257.01580 -5319.78202 -4958.44885 -3296.96870 -2353.73279 -933.69321 -703.68188 -951.84105 -974.24313 -1128.74578 -1611.86147 -2972.25999 -3217.15060 -3145.31818 -3074.97663 -3060.84233 -3068.46731 -3121.52577 -3167.33175 -3210.62975 -3232.21983 -3247.39448 -3258.13092 -3265.72004 -3269.89464 -3271.26342 -3271.34046 -3270.97852 -3271.08329 -3272.05478 -3272.37758 -3274.01238 -3279.08976 -3287.92900 -3298.11612 -3317.92673 -3338.10719 -3338.20719
-5171.70471 -5171.60471 -5171.09189 -5172.50939 -5173.16091 -5171.65172 -5171.33835 -5170.85763 -5173.66482 -5170.38146 -5169.85919 -5167.85978 -5166.61333 -5167.24412 -5165.66468 -5164.53588 -5162.89062 -5157.84542 -5159.27796 -5157.68623 -5154.64872 -5152.65504 -5141.47084 -5141.04614 -5136.07879 -5132.67427 -5128.35571 -5121.58548 -5108.03824 -5099.09290 -5087.95497 -5083.52927 -5080.59179 -5072.03943 -5064.84197 -4955.57718 -4235.33890 -3075.00818 -1944.96253 -1257.69661 -991.82532 -927.58465 -874.38850 -832.06431 -692.73456 -464.40404 -353.21195 -277.81644 -248.92202 -199.74996 -184.20350 -176.64329 -157.48663 -148.42200 -131.40762 -107.08429 -123.76048 -92.18754 -79.97210 -69.63062 -68.06353 -58.64572 -38.88625 -5.62934 6.41473 21.44385 81.75009 137.53391 154.51392 147.50447 138.11432 123.06612 104.61014 96.99626 96.07807 100.39170 107.10837 115.93021 128.47288 136.57420 144.61369 170.05624 174.80539 180.28380 175.15185 172.85006 145.76645 111.52747 34.91753 7.88779 3.11119 -63.03429 -123.32333 -196.68034 -518.94494 -1042.04586 -2223.74427 -2954.91003 -3404.89667 -4630.44901 -4946.38213 -5270.24997 -5343.52717 -5303.85775 -5284.06006 -4754.10442 -4047.55370 -2665.12475 -830.23645 -526.44498 -531.58012 -103.24564 -117.93632 -113.49341 -136.40098 -857.96371 -2255.25371 -2929.74596 -3011.86210 -3020.55002 -3030.24014 -3057.06820 -3129.97479 -3181.50675 -3217.31163 -3243.17142 -3251.20929 -3265.41150 -3271.14260 -3273.94837 -3274.60229 -3272.61774 -3272.33506 -3272.51593 -3272.99069 -3273.15726 -3274.28180 -3276.97261 -3288.90010 -3298.20303 -3318.64969 -3339.27335 -3339.37335
-5179.62258 -5179.52258 -5180.04609 -5178.46251 -5178.97912 -5180.52704 -5181.12081 -5180.83217 -5180.78433 -5183.87538 -5183.28972 -5181.05647 -5175.77102 -5178.12193 -5178.97291 -5174.98124 -5178.29440 -5175.95263 -5168.66501 -5171.14604 -5169.14092 -5166.91706 -5164.54032 -5161.25220 -5154.00950 -5150.42144 -5141.36067 -5138.83254 -5140.81624 -5121.23001 -5106.14684 -5096.84987 -5083.64236 -5073.35197 -5061.83740 -4892.74957 -4540.51621 -3206.26339 -1941.68314 -1337.48450 -1077.22630 -999.50585 -910.33618 -863.46781 -783.37329 -566.22896 -403.59599 -324.66773 -300.54197 -282.04128 -249.52972 -247.28380 -187.87438 -163.73828 -171.87924 -170.87065 -158.34991 -121.61909 -109.95531 -95.53651 -94.96707 -78.77593 -64.29090 -51.77757 -16.55220 23.22960 50.38159 122.07140 158.42383 162.73835 143.02356 112.75606 89.86949 83.79811 78.65553 79.97201 83.71090 88.69271 117.89896 120.72070 125.34381 146.04313 162.38957 163.52084 162.29700 133.82942 149.22587 185.16568 81.04743 3.76861 -19.43470 -72.25451 -122.24791 -222.52540 -631.63393 -2144.61562 -2823.46174 -2982.23461 -3661.02320 -4148.37892 -4803.94684 -5209.49355 -5350.09486 -4980.84253 -4250.94511 -2983.13622 -1984.69697 -155.62136 -139.43060 -105.55846 -84.63554 -80.69330 -70.61625 -86.59251 -139.86170 -336.38807 -1972.57189 -2774.69745 -3003.45670 -3024.07122 -3041.95660 -3102.94501 -3152.41007 -3194.36365 -3225.38942 -3250.99524 -3261.87025 -3273.28261 -3278.01773 -3280.06087 -3279.42460 -3278.11197 -3277.11039 -3276.68083 -3276.44255 -3276.18967 -3275.79393 -3278.47858 -3285.93032 -3299.85216 -3315.27196 -3340.11459 -3340.21459
-5188.06580 -5187.96580 -5188.37245 -5191.59959 -5190.24863 -5190.33320 -5191.50997 -5194.59169 -5192.74463 -5192.22475 -5190.83817 -5191.26016 -5191.66732 -5190.69765 -5189.63498 -5189.88839 -5193.60333 -5189.99214 -5189.40949 -5192.66547 -5187.35381 -5183.92630 -5181.72410 -5178.41605 -5174.04037 -5171.65356 -5166.55342 -5160.03261 -5150.62163 -5143.85643 -5126.40587 -5122.34603 -5110.58176 -5091.36024 -5069.11840 -4977.86713 -4556.26616 -3877.64422 -2749.81284 -1802.98290 -1209.22600 -1037.97134 -962.71718 -897.13588 -823.23832 -650.20395 -449.84360 -420.14561 -370.54129 -348.63377 -343.84441 -303.17467 -255.14175 -267.00658 -205.23755 -185.45236 -173.88978 -155.44755 -150.63711 -139.38092 -130.60804 -114.77577 -87.34181 -76.06052 -67.54909 -17.86414 27.08950 80.14524 104.24521 136.28794 148.25699 102.84829 86.62573 61.42522 58.86793 61.88458 63.96165 64.88050 98.61313 101.80655 114.61496 116.49929 132.34114 135.13674 134.61153 117.22265 85.29797 187.97159 139.34666 -15.59440 -74.20342 -110.65455 -255.02738 -542.42694 -914.34690 -1452.06325 -1678.89940 -2501.37812 -3022.83963 -3773.71466 -4682.12491 -3221.32363 -2715.13927 -1641.96326 -1324.55861 -203.31993 -165.57198 -126.26126 -102.34906 -69.64014 -48.37440 -49.72550 -54.42311 -82.00462 -131.12100 -295.48067 -2025.92407 -2858.27311 -3005.13534 -3040.83913 -3078.52864 -3119.72087 -3166.58510 -3218.41473 -3237.10011 -3260.21204 -3274.16436 -3278.31539 -3285.15991 -3286.65566 -3285.90293 -3285.26330 -3285.15961 -3283.95449 -3282.47845 -3279.23660 -3279.75711 -3282.29562 -3288.56900 -3304.56731 -3319.43510 -3341.59905 -3341.69905
-5197.11853 -5197.01853 -5198.67669 -5198.50198 -5201.48710 -5199.59879 -5200.45628 -5199.37861 -5202.51639 -5205.04971 -5205.56053 -5210.31325 -5207.75718 -5206.83717 -5207.29527 -5209.97087 -5209.08280 -5209.84074 -5206.73941 -5205.12102 -5204.42451 -5202.58130 -5198.34040 -5199.56052 -5195.33994 -5186.98296 -5184.74350 -5175.94147 -5174.16301 -5166.50540 -5152.12458 -5140.36465 -5124.02641 -5112.69968 -5099.48135 -5037.03008 -4822.48052 -4070.53757 -3065.42062 -2380.99343 -1569.81713 -1195.05779 -1034.93597 -938.57993 -888.92191 -840.43982 -690.57566 -521.46245 -517.77343 -520.50272 -525.87690 -406.14195 -391.54042 -364.34803 -277.61389 -235.28661 -223.68690 -218.67406 -207.88125 -187.47041 -169.10381 -134.39639 -110.72279 -98.18414 -72.89033 -49.06960 -10.10732 36.12859 63.07390 67.93325 129.16987 80.76611 64.63598 42.16255 36.44026 43.55794 47.68881 51.63257 58.38669 69.62934 94.44890 104.10672 109.66652 120.09565 117.13555 95.51912 51.73651 66.25374 114.43768 -8.25411 -121.44352 -164.96343 -256.47836 -585.48967 -843.71366 -1118.08256 -1221.99758 -1806.23763 -2833.20201 -2240.28393 -1336.35219 -348.73102 -404.29135 -370.05498 -176.94929 -142.62859 -94.30172 -67.71272 -64.10754 -58.78849 -44.82933 -49.14011 -67.29865 -96.62001 -157.39931 -696.62626 -2147.88224 -2965.34237 -3011.55576 -3051.23490 -3116.41104 -3144.48011 -3189.82935 -3235.50101 -3263.30842 -3270.18400 -3281.67589 -3289.08489 -3292.14862 -3294.28771 -3297.87914 -3293.84743 -3295.02473 -3292.92038 -3292.58229 -3291.65396 -3288.81365 -3289.47558 -3293.26778 -3307.94474 -3322.26835 -3342.81843 -3342.91843
-5206.79763 -5206.69763 -5204.19451 -5209.70499 -5210.85905 -5210.80038 -5213.96909 -5213.99841 -5219.09214 -5219.34394 -5217.13711 -5218.54551 -5219.23510 -5219.98638 -5218.78035 -5222.83994 -5222.14273 -5219.80232 -5224.44897 -5222.30222 -5219.22838 -5217.54336 -5216.95974 -5216.52050 -5210.73841 -5208.77658 -5203.44354 -5198.55631 -5190.25082 -5186.62193 -5175.56684 -5163.97753 -5151.43414 -5137.88348 -5131.03507 -5088.45886 -4951.58917 -4477.06792 -3758.71038 -2710.75239 -2091.57966 -1404.34646 -1163.04842 -1025.93109 -982.66145 -829.65949 -787.91249 -757.44114 -749.01189 -696.70132 -708.41173 -664.95762 -583.49153 -523.46988 -398.49714 -338.55631 -298.37455 -330.52852 -277.20757 -244.22841 -189.56725 -161.88840 -153.30538 -135.74851 -98.38996 -80.56800 -65.71790 -22.91392 4.23212 46.36498 33.16766 21.90695 34.60564 24.19238 24.73308 19.11010 22.73328 35.92197 43.67794 58.26422 66.99815 77.04795 87.00188 91.95478 84.24904 71.24937 34.29887 22.27698 -3.12735 -60.06504 -135.19267 -196.86518 -315.23137 -458.24114 -588.57096 -686.13290 -911.98796 -1521.12920 -1422.89495 -784.17489 -239.24455 -159.92109 -141.13407 -159.54590 -105.11697 -65.01184 -53.30670 -53.15064 -59.72381 -65.48098 -62.54431 -79.33784 -97.65628 -116.10464 -171.92298 -748.07924 -2236.06021 -3001.06917 -3042.87845 -3088.86372 -3117.67221 -3167.34927 -3207.46991 -3242.89490 -3267.79348 -3282.43919 -3290.45452 -3299.13754 -3307.39490 -3309.48692 -3307.30545 -3308.62675 -3302.36890 -3308.32184 -3308.08551 -3299.37310 -3300.67688 -3300.08065 -3302.19000 -3314.45017 -3325.22276 -3344.39172 -3344.49172
-5216.91535 -5216.81535 -5221.19829 -5222.26600 -5222.55962 -5225.16113 -5225.47102 -5225.08266 -5229.44525 -5230.06316 -5234.89022 -5238.12076 -5240.04465 -5237.69710 -5240.58951 -5244.07447 -5241.33141 -5241.80963 -5241.10853 -5239.80751 -5240.03482 -5235.88371 -5238.02325 -5230.58530 -5231.36915 -5224.17836 -5221.84222 -5217.40193 -5209.95456 -5205.30966 -5197.50066 -5183.11787 -5176.12570 -5164.82277 -5148.53918 -5120.86385 -5064.39192 -4806.14406 -4459.13472 -3150.96735 -2478.20311 -1812.81275 -1571.69855 -1192.01261 -1138.16391 -958.19588 -889.51247 -826.89956 -819.90763 -822.58225 -850.10374 -910.28857 -805.39868 -617.55808 -609.46061 -504.89198 -491.76663 -539.45729 -440.88893 -334.71163 -234.86445 -200.00282 -196.49899 -172.03215 -150.93348 -116.09717 -101.45065 -46.79059 -34.76900 -15.64160 -2.06479 -4.64575 2.95536 3.95805 5.47185 4.65025 7.86872 11.89504 27.25137 39.48360 48.62068 55.47124 77.92292 77.29522 75.83314 63.26180 24.84267 -28.78964 -68.04524 -76.44392 -199.02790 -266.90212 -354.26120 -385.57458 -452.00592 -534.52465 -576.91268 -530.26806 -386.35154 -245.20239 -90.99833 5.25784 -6.67352 -55.41279 5.92696 -8.44237 -33.79095 -51.57972 -73.32029 -75.89594 -91.57889 -100.82889 -121.39725 -397.50964 -1482.40005 -2298.68602 -3030.53146 -3030.92246 -3066.63522 -3090.20181 -3132.13263 -3176.41110 -3217.03930 -3253.27886 -3275.46192 -3286.73189 -3309.09713 -3318.25214 -3318.40959 -3325.07855 -3329.24381 -3336.28209 -3334.10462 -3327.57465 -3323.21647 -3321.28925 -3314.36244 -3315.34383 -3315.60215 -3323.80921 -3330.12261 -3346.14848 -3346.24848
-5227.63488 -5227.53488 -5229.39849 -5231.53264 -5236.17118 -5237.65019 -5240.84134 -5244.31003 -5246.27156 -5247.31962 -5250.54968 -5250.60667 -5251.47557 -5255.01476 -5255.30001 -5255.76596 -5251.95777 -5261.43847 -5256.34872 -5257.92931 -5251.19551 -5256.20253 -5254.12892 -5249.65077 -5245.33166 -5238.15379 -5235.31849 -5233.42577 -5226.49317 -5219.58785 -5213.29179 -5205.27121 -5190.33792 -5178.20629 -5174.16854 -5147.29635 -5125.40130 -5018.82442 -4563.10670 -4271.45692 -3304.63683 -2913.39368 -2087.43619 -1966.05803 -1882.10346 -1259.41920 -1095.73957 -975.70111 -899.03882 -928.87900 -958.73695 -998.50877 -878.23313 -769.77128 -688.50402 -700.85124 -686.34515 -636.15881 -560.83841 -401.26905 -277.23943 -241.28755 -236.62512 -177.76643 -161.59602 -135.15322 -125.08406 -88.76420 -77.05669 -59.84450 -49.27562 -30.62389 -26.09596 -17.00962 -18.26062 -12.77287 0.05161 2.50131 10.46179 22.18412 31.28498 38.41316 48.25585 50.44503 41.37485 34.57480 13.27649 -24.28046 -64.76362 -125.99280 -171.14572 -290.23942 -303.31047 -321.75542 -385.55532 -383.28263 -361.96439 -314.36968 -184.95276 -49.36345 25.71038 76.34834 124.50856 131.92245 93.12759 47.78019 -34.14328 -74.78490 -102.27941 -106.54155 -136.11725 -937.51390 -1451.11121 -2099.43688 -2340.70487 -3065.26536 -3069.76559 -3046.11918 -3050.66995 -3081.62901 -3133.78428 -3176.62557 -3232.93525 -3276.41555 -3294.03428 -3316.08121 -3323.43057 -3332.53520 -3341.23292 -3345.97715 -3350.95854 -3355.71435 -3358.13412 -3359.49922 -3351.44489 -3354.03458 -3338.76893 -3332.72666 -3326.88026 -3329.05882 -3336.90706 -3347.83328 -3347.93328
-5238.90914 -5238.80914 -5240.89385 -5245.83926 -5248.94344 -5250.93604 -5253.20286 -5256.83264 -5261.26507 -5263.79347 -5268.35343 -5266.34280 -5271.38729 -5276.07422 -5279.01570 -5275.56987 -5280.38927 -5276.95447 -5269.80215 -5273.77911 -5273.52276 -5268.80461 -5267.72495 -5265.78466 -5266.31809 -5259.25816 -5254.32674 -5255.27975 -5244.69276 -5234.75925 -5226.36654 -5222.00250 -5213.23847 -5202.80732 -5186.70593 -5169.36562 -5154.08043 -5070.40832 -4911.25713 -4711.50504 -4428.05880 -4051.88586 -3289.92480 -3151.69712 -2456.81121 -1905.00074 -1382.21590 -1159.28575 -1103.02647 -1079.96644 -1066.43795 -1029.02248 -951.29326 -858.89262 -791.63157 -746.57571 -723.19395 -700.44980 -592.67195 -519.60044 -450.37812 -396.81758 -333.52471 -283.33570 -219.51293 -160.45999 -134.09629 -120.99244 -103.13214 -79.63526 -69.45552 -67.17862 -59.08440 -43.91111 -34.66609 -33.37703 -26.11643 -9.77476 2.02751 14.84325 20.06866 20.84074 25.00199 30.46671 35.30166 26.09885 10.13128 -34.47556 -65.80902 -104.43567 -165.85869 -250.90342 -274.49700 -287.09998 -247.89044 -241.42479 -189.15090 -112.38575 -6.89595 161.75376 250.34946 359.97271 317.26477 204.19173 111.78574 6.50187 -36.69329 -90.44601 -146.24826 -399.36352 -935.04256 -1779.67867 -2298.69023 -3235.68683 -3090.25530 -3022.69981 -3011.51842 -3013.47413 -3058.35789 -3094.62744 -3159.20808 -3198.10335 -3246.02716 -3279.66982 -3315.89812 -3331.61749 -3340.68194 -3353.59476 -3359.13699 -3376.35058 -3380.30234 -3381.19392 -3386.75171 -3389.44181 -3388.48501 -3372.43646 -3359.78601 -3342.48636 -3345.00429 -3344.14147 -3344.50762 -3350.34896 -3350.44896
-5251.35228 -5251.25228 -5256.15614 -5261.17940 -5267.70948 -5273.97996 -5270.15081 -5277.30102 -5282.15692 -5283.94274 -5287.23528 -5289.32415 -5291.57407 -5295.82539 -5293.17805 -5287.79645 -5295.54029 -5297.39047 -5297.81325 -5297.15899 -5294.14122 -5291.84879 -5291.20297 -5290.97953 -5285.77054 -5283.73279 -5274.52190 -5266.65012 -5261.81553 -5259.32752 -5251.60704 -5240.71406 -5235.02780 -5222.50471 -5200.57674 -5173.01825 -5162.92400 -5137.58898 -5081.57429 -5063.62857 -4882.13141 -4760.95381 -4409.10450 -4061.09823 -3622.05865 -2894.49676 -1967.43963 -1525.29488 -1353.63902 -1329.63271 -1202.18988 -1123.73888 -1027.21469 -920.34764 -853.56949 -845.88393 -773.84732 -728.12602 -685.89870 -698.90364 -539.06862 -481.99280 -402.52897 -335.68203 -300.75860 -213.56775 -172.52253 -147.36381 -122.40020 -103.41473 -90.97507 -84.90671 -78.82963 -67.53075 -52.79354 -48.77472 -28.17560 -15.08208 -5.07411 6.75607 7.97247 9.83546 10.69982 17.89035 12.53974 8.32916 -0.58176 -22.48166 -53.72696 -86.24681 -153.68027 -211.45490 -213.42058 -240.74902 -207.59351 -131.09629 -109.84877 -64.85107 159.05612 373.78150 428.07383 609.33633 399.75376 185.03023 80.86330 -17.46980 -53.11217 -120.13059 -242.45402 -756.13893 -2467.72444 -2862.21891 -2941.43203 -3075.87091 -2959.59734 -2960.14417 -2964.43022 -3001.87321 -3055.95559 -3124.91726 -3175.93225 -3199.35263 -3277.85391 -3315.64681 -3331.96401 -3352.42458 -3372.12785 -3387.45706 -3386.28440 -3402.20770 -3407.88095 -3422.92179 -3428.54766 -3412.61376 -3416.62229 -3395.38055 -3385.74293 -3372.14763 -3363.17964 -3354.17589 -3351.30378 -3352.47617 -3352.57617
-5265.89637 -5265.79637 -5271.63298 -5274.32011 -5283.82851 -5290.83838 -5301.17938 -5300.70154 -5309.31553 -5315.78965 -5314.60880 -5317.56380 -5313.01524 -5323.38491 -5326.56850 -5328.11430 -5324.66850 -5325.12326 -5330.38896 -5325.85301 -5318.64421 -5323.43234 -5322.88242 -5310.22705 -5309.31351 -5303.82343 -5307.42194 -5292.68534 -5290.22415 -5284.29284 -5274.24721 -5264.72553 -5261.56812 -5244.84155 -5227.26785 -5213.08585 -5175.65373 -5172.04726 -5120.92177 -5092.14360 -5034.32632 -5030.10803 -4870.76045 -4735.52768 -4409.84316 -3194.40623 -2927.57925 -2235.05391 -1719.22882 -1593.85936 -1265.62604 -1183.90396 -1106.94777 -1051.90488 -977.71231 -930.45209 -847.09157 -800.70971 -812.96132 -821.09789 -679.55944 -582.76877 -506.07509 -478.90264 -382.89618 -265.66074 -214.32437 -198.32755 -149.85339 -126.46920 -108.56793 -100.25293 -90.55011 -82.44302 -66.79240 -60.25957 -41.08346 -25.66359 -1.98847 5.49607 7.27389 8.80464 8.46462 8.13908 6.08535 0.03145 -7.21914 -22.59939 -33.65284 -42.08672 -101.48583 -162.78824 -116.94182 -116.33176 -151.03599 -115.22274 -34.95445 75.82517 377.42729 626.61623 519.98743 459.07829 117.23225 52.02014 -3.22125 -67.92687 -107.92328 -160.05808 -255.41983 -1960.17108 -2779.34891 -3036.78276 -2985.66243 -2956.45493 -2923.17237 -2922.53313 -2970.64003 -2997.40319 -3094.19479 -3137.08304 -3215.19973 -3241.19902 -3296.11616 -3335.51990 -3360.48804 -3378.59427 -3403.93728 -3419.81871 -3432.06425 -3447.56879 -3450.55498 -3460.35903 -3459.27868 -3459.80713 -3435.40975 -3428.88899 -3407.67129 -3397.26422 -3373.27243 -3365.51131 -3356.80403 -3353.89475 -3353.99475
-5283.70851 -5283.60851 -5292.80584 -5300.11490 -5310.43355 -5313.97001 -5327.57074 -5333.33363 -5333.51676 -5345.86567 -5341.56905 -5366.28129 -5355.94900 -5355.10955 -5355.71818 -5357.04969 -5356.60595 -5355.21347 -5358.58827 -5361.77430 -5369.21747 -5358.78061 -5357.16330 -5357.35700 -5349.65006 -5347.42475 -5354.80971 -5332.59627 -5337.50612 -5323.69054 -5309.95895 -5300.72413 -5285.74829 -5281.57054 -5245.94889 -5241.99070 -5203.60292 -5196.18568 -5171.68151 -5113.88165 -5096.80690 -5070.61250 -5037.71694 -5004.44614 -4729.89746 -4257.21265 -3918.06741 -2977.09312 -2554.21557 -2005.94465 -1665.11777 -1242.64363 -1281.93202 -1242.56341 -1095.37720 -1086.21419 -978.38698 -968.05915 -947.65600 -1005.12740 -894.71500 -771.99394 -685.71596 -569.85773 -457.72390 -335.35408 -265.79741 -243.98341 -208.18921 -171.56423 -138.27501 -119.33133 -96.41846 -89.69204 -71.92090 -56.42734 -37.45169 -30.95990 -19.97138 0.57970 4.18065 8.19732 6.68632 11.22264 13.00921 6.18132 4.97033 -5.61122 -14.50732 -22.49055 -35.69497 -49.98264 -74.04812 -71.88928 -71.18327 -56.76582 113.68920 308.09178 508.09562 730.15657 530.77035 240.37750 36.38754 -56.63108 -84.46445 -168.97451 -210.92304 -553.52187 -1091.63477 -2465.14452 -2942.39685 -2926.38412 -2915.15436 -2910.92952 -2902.94598 -2928.47879 -2981.20196 -3036.82084 -3107.84466 -3178.74655 -3220.65448 -3280.94424 -3325.08469 -3361.91841 -3391.16461 -3411.92249 -3430.01792 -3448.80178 -3469.83068 -3476.09537 -3487.32401 -3493.04355 -3485.92803 -3483.44448 -3464.52452 -3445.17538 -3431.06399 -3414.80310 -3389.50116 -3371.75598 -3361.82928 -3353.82569 -3353.92569
-5306.53965 -5306.43965 -5315.25835 -5325.21824 -5337.84665 -5348.85416 -5363.81455 -5382.31374 -5386.93804 -5395.98073 -5419.22915 -5401.31646 -5404.89706 -5409.44633 -5387.42963 -5402.50553 -5398.72542 -5416.64930 -5417.48577 -5408.48178 -5397.84259 -5400.95374 -5405.89728 -5399.71829 -5402.98437 -5407.14103 -5393.65499 -5387.38003 -5373.49552 -5379.56262 -5370.51530 -5346.36766 -5338.21182 -5319.19624 -5306.05872 -5270.86859 -5255.41908 -5224.95098 -5216.29011 -5177.56108 -5156.27033 -5109.84823 -5078.06327 -5054.73401 -5047.34287 -4751.32908 -4541.77601 -4258.58661 -3762.76290 -3020.27678 -2457.36969 -2011.84480 -1764.79881 -1720.57761 -1346.59347 -1241.66682 -1262.24042 -1189.88281 -1660.08096 -1643.03120 -1313.35084 -926.91794 -701.39269 -607.45955 -456.43300 -376.90964 -338.51993 -288.75107 -243.98150 -216.25854 -163.98389 -139.56974 -122.33005 -87.52083 -60.23629 -48.48461 -41.20056 -24.90704 -17.69679 -8.72285 -2.30764 3.87108 11.90694 15.56162 28.00823 25.21211 23.00105 22.71128 11.71021 14.16287 -2.37756 -23.22371 -25.32581 -9.76833 -12.11376 68.53987 210.82001 442.98311 548.45566 497.84756 202.93597 52.48796 -14.02209 -66.81850 -117.82856 -209.37441 -255.64591 -701.15654 -2200.08140 -2835.56459 -3013.77327 -2906.06888 -2905.85206 -2895.85755 -2911.71952 -2949.24556 -3019.08904 -3056.74044 -3145.07599 -3188.19168 -3265.53334 -3324.03023 -3370.75943 -3401.03380 -3428.82048 -3444.09098 -3472.90819 -3485.82944 -3504.39712 -3512.07719 -3517.87103 -3519.44523 -3508.60222 -3504.12424 -3484.60262 -3467.45987 -3451.07096 -3415.53908 -3397.49392 -3374.00908 -3363.47796 -3352.25916 -3352.35916
-5336.62635 -5336.52635 -5353.34856 -5372.29560 -5375.09859 -5388.08736 -5410.00301 -5426.68586 -5435.22734 -5445.74170 -5458.31941 -5454.10416 -5464.09332 -5456.66197 -5458.30449 -5455.70120 -5460.49678 -5468.20989 -5464.66709 -5465.32306 -5459.30533 -5478.50764 -5464.84817 -5465.83408 -5480.11070 -5466.30074 -5459.06220 -5449.03443 -5466.08658 -5430.17373 -5434.39661 -5405.08342 -5398.99315 -5400.44855 -5364.49214 -5326.22075 -5312.89909 -5294.26551 -5239.54133 -5239.67687 -5202.43474 -5185.41658 -5130.12473 -5114.86189 -5066.95346 -5030.20821 -4974.21473 -4823.65284 -4525.94460 -4087.91185 -3744.17362 -3684.18513 -3436.70460 -3157.87942 -2384.13615 -3033.26163 -2837.20400 -3063.16507 -2516.42724 -2036.75512 -1541.84613 -1011.44046 -744.32548 -566.77279 -441.89327 -378.90380 -359.56147 -299.98577 -258.50268 -221.80971 -205.89781 -153.59321 -119.49979 -83.27497 -57.54459 -46.48990 -34.88949 -21.97320 -15.67349 -8.65654 -5.27803 3.18902 21.66948 30.11335 49.16112 59.90224 60.42789 67.57295 43.99636 48.72420 27.97489 57.72757 9.06527 30.53753 151.26314 281.63554 366.74373 622.26437 578.47703 316.03630 102.87237 12.55635 -83.43064 -134.53191 -175.39052 -809.77509 -1154.23374 -2126.62937 -2635.27610 -3079.70763 -2971.54412 -2914.41586 -2917.12653 -2917.68312 -2934.40458 -2978.39285 -3047.84330 -3102.90205 -3161.27672 -3213.23758 -3280.17114 -3353.39014 -3387.84720 -3432.11243 -3462.40151 -3480.81351 -3503.31532 -3519.95293 -3529.90140 -3537.55006 -3542.60901 -3542.77423 -3528.92630 -3518.43995 -3499.09722 -3474.30005 -3451.14032 -3424.00191 -3397.04839 -3378.57637 -3359.61977 -3348.47728 -3348.57728
-5375.01951 -5374.91951 -5395.80113 -5405.15631 -5433.48239 -5451.72543 -5456.23232 -5472.10155 -5483.48207 -5511.16487 -5532.26575 -5531.07558 -5537.43293 -5554.93510 -5569.92949 -5551.48212 -5542.28226 -5539.75246 -5537.37878 -5522.77824 -5537.31563 -5534.64178 -5554.11737 -5552.09173 -5546.84530 -5535.92712 -5521.70278 -5540.05121 -5528.78042 -5515.58958 -5505.09047 -5505.80051 -5464.84422 -5446.31944 -5426.66703 -5405.80447 -5378.63744 -5346.95193 -5356.70205 -5301.27924 -5251.77172 -5251.57169 -5206.33694 -5171.23262 -5132.37439 -5080.30814 -5019.87677 -4963.08187 -4895.96884 -4708.00278 -4629.63147 -4488.74179 -4308.26454 -4247.54592 -3569.00803 -3928.90647 -3808.95936 -3546.24625 -3043.58934 -2362.16895 -1590.10895 -1202.84955 -840.65476 -551.07813 -462.93944 -394.96596 -382.52803 -344.88355 -263.08532 -236.74053 -222.58497 -192.36747 -110.59288 -86.89585 -66.55806 -46.04327 -31.98563 -19.57190 -12.63632 -5.18568 2.66478 23.28821 42.56620 65.65449 73.36409 85.07333 81.21245 88.28561 92.64421 104.98710 100.73399 183.92667 179.65146 351.29673 403.06664 582.99982 834.29748 813.01004 419.55119 213.19466 3.62223 -95.41355 -162.13636 -263.36306 -747.97183 -1289.73782 -2874.42810 -2610.41936 -3010.05073 -3032.71008 -2953.92653 -2921.53590 -2924.32590 -2935.19011 -2979.79547 -3006.43123 -3077.43437 -3135.80390 -3194.51787 -3278.91165 -3330.85210 -3389.08225 -3430.84705 -3472.38798 -3485.82199 -3511.35092 -3535.30549 -3552.17332 -3558.60430 -3557.42582 -3557.55233 -3550.24764 -3534.41995 -3519.65802 -3499.44708 -3472.39708 -3453.88509 -3414.12783 -3393.47648 -3374.06612 -3355.67975 -3343.09602 -3343.19602
-5422.59101 -5422.49101 -5451.38578 -5456.73451 -5508.45435 -5525.84129 -5543.92885 -5570.04399 -5570.63680 -5591.78728 -5601.99430 -5595.52255 -5591.02753 -5611.43314 -5607.88370 -5620.16078 -5627.94761 -5595.61692 -5632.41367 -5650.13830 -5608.59239 -5603.92753 -5624.95915 -5614.08236 -5627.93000 -5626.24662 -5594.33162 -5607.06502 -5579.91717 -5607.91816 -5578.32071 -5573.37017 -5554.63914 -5525.86836 -5521.70986 -5491.46835 -5498.75741 -5459.11376 -5410.46280 -5378.76960 -5348.08759 -5324.54769 -5312.88360 -5249.07198 -5186.15059 -5138.29530 -5031.06315 -4992.17381 -4889.46405 -4847.00528 -4773.97429 -4728.16605 -4705.63735 -4645.36048 -4560.04361 -4364.34003 -4156.11545 -3709.66773 -3100.96349 -2268.89979 -1735.77371 -1255.04359 -964.03988 -706.16584 -530.65278 -431.63976 -367.85856 -323.64684 -275.82783 -250.77182 -231.22282 -173.01116 -109.16465 -85.55650 -63.82629 -44.52198 -27.25566 -11.39539 3.10692 8.02731 17.87233 42.27453 65.28224 78.09727 96.37421 105.23112 104.75526 108.76900 105.02804 335.91934 374.45420 393.64322 354.51987 917.90775 1067.03578 1387.49217 1376.76414 976.63369 695.30300 387.89442 59.41246 -143.77657 -291.11029 -852.22494 -2148.42259 -2931.75080 -3507.72086 -2969.87244 -3076.83966 -2976.39963 -2944.22062 -2933.67288 -2950.91510 -2962.09282 -2993.48965 -3023.04615 -3109.88212 -3184.79478 -3259.83998 -3309.49837 -3342.16440 -3451.10381 -3469.03648 -3508.25776 -3529.97598 -3551.12140 -3560.51807 -3569.20380 -3571.86141 -3567.78676 -3561.36651 -3549.47731 -3526.99037 -3512.02725 -3488.40568 -3466.30656 -3438.85042 -3409.59019 -3389.97179 -3367.18945 -3347.63100 -3336.02693 -3336.12693
-5480.55438 -5480.45438 -5508.33016 -5537.05573 -5565.76712 -5574.88741 -5609.14968 -5632.83750 -5644.05289 -5677.18609 -5695.84395 -5714.35586 -5696.16649 -5714.91446 -5706.65399 -5705.26268 -5717.30305 -5693.60900 -5710.04165 -5703.47250 -5699.12921 -5705.58122 -5690.43298 -5680.00291 -5667.47634 -5689.88880 -5701.60141 -5684.37238 -5679.29652 -5658.86485 -5661.92668 -5638.85015 -5622.37219 -5610.48651 -5602.30022 -5561.04439 -5539.37138 -5532.13048 -5501.54545 -5490.10234 -5459.84009 -5394.76772 -5365.56698 -5303.84014 -5296.62940 -5183.19510 -5124.30765 -5051.50515 -4960.57183 -4886.59595 -4817.92082 -4767.34493 -4733.79285 -4673.59790 -4603.28297 -4485.40732 -4385.79313 -3889.64488 -3381.62321 -2580.75477 -1734.67030 -1445.89153 -1183.34518 -864.20045 -588.36193 -496.41424 -367.55351 -320.50039 -284.59200 -245.10579 -224.60513 -159.18247 -96.95818 -73.21392 -57.57659 -36.40284 -7.70114 1.58940 6.10937 18.24079 26.36371 52.56607 70.83282 82.46115 105.69616 119.07876 174.34353 276.88987 327.43429 573.33727 854.82351 722.77457 786.12418 1250.91104 1450.39259 1781.98190 1660.75996 1109.65605 927.63419 515.47697 33.54226 -162.85316 -871.99808 -1249.18580 -2597.60207 -3587.03325 -3350.04729 -3113.78521 -3008.62552 -2966.17186 -2952.72609 -2957.92952 -2980.53398 -2997.41728 -3039.12894 -3079.21267 -3147.16615 -3225.06602 -3284.37270 -3369.35283 -3426.24092 -3478.08211 -3504.62277 -3534.23795 -3558.04136 -3565.05691 -3580.05106 -3581.07239 -3574.91239 -3568.42749 -3555.78388 -3543.10254 -3521.21530 -3491.48546 -3478.60281 -3448.43231 -3429.22283 -3408.10000 -3372.58779 -3352.47769 -3339.74453 -3328.01971 -3328.11971
-5545.44678 -5545.34678 -5569.72700 -5606.05438 -5646.11571 -5667.85835 -5696.81398 -5730.10060 -5731.11332 -5765.97109 -5767.75410 -5772.17599 -5790.33649 -5781.47487 -5796.71113 -5783.35280 -5779.55510 -5779.35794 -5774.33970 -5778.76194 -5773.02077 -5769.13537 -5774.30429 -5766.65816 -5762.78123 -5770.23991 -5778.30200 -5755.10747 -5742.24694 -5737.49419 -5725.47603 -5696.80552 -5711.24684 -5690.33908 -5676.77897 -5648.06516 -5628.84040 -5613.62136 -5593.76114 -5560.87257 -5531.14637 -5512.37943 -5463.59110 -5417.55922 -5361.67905 -5332.14666 -5224.34053 -5133.84635 -5053.13307 -4987.23669 -4882.53758 -4804.02137 -4758.21571 -4661.99457 -4618.44352 -4580.15427 -4471.95733 -4138.88157 -3593.85647 -2560.02342 -1999.74926 -1740.72629 -1340.71094 -883.92772 -680.10979 -520.20462 -427.92212 -322.30637 -286.81857 -247.31679 -208.90366 -138.89687 -74.88298 -58.97376 -45.34637 -24.58561 4.85266 12.62176 22.88631 28.39927 34.32602 71.86238 95.57261 98.13861 119.41833 154.74225 277.73699 514.66743 690.17446 1116.97667 1596.61563 1525.24607 1659.96714 1548.09462 1407.61571 1661.82805 1453.29483 795.11210 668.45150 -245.93478 -1174.95736 -1234.06674 -1299.89832 -2491.69899 -2706.95360 -3313.87338 -3261.60257 -3055.24873 -3001.07407 -2970.35005 -2971.67842 -2976.37259 -2998.92222 -3019.85522 -3076.25067 -3133.88796 -3175.25013 -3290.65582 -3362.45087 -3401.25276 -3464.95171 -3515.99720 -3546.14697 -3563.15133 -3577.15939 -3584.93487 -3588.76922 -3581.40359 -3566.29786 -3555.47067 -3537.88769 -3520.49100 -3501.95328 -3468.94757 -3452.95757 -3429.56718 -3410.29593 -3384.72693 -3361.40100 -3344.83914 -3331.56204 -3319.94666 -3320.04666
-5615.38443 -5615.28443 -5639.72386 -5685.39677 -5702.97087 -5727.60509 -5787.20607 -5803.03338 -5814.47454 -5829.18944 -5853.05720 -5853.37010 -5840.61379 -5852.78238 -5844.73619 -5846.29249 -5840.33774 -5832.83883 -5846.29570 -5838.67054 -5831.37768 -5809.70108 -5810.48533 -5807.44971 -5808.60110 -5813.14387 -5805.62178 -5806.60752 -5793.10031 -5787.50978 -5778.60555 -5773.27509 -5748.17524 -5738.41569 -5744.06392 -5707.99034 -5704.89371 -5654.70742 -5655.92923 -5629.53384 -5589.21008 -5556.04486 -5527.25932 -5482.66654 -5440.88873 -5391.42154 -5298.70029 -5198.84769 -5111.84824 -5040.52889 -4968.63498 -4880.11691 -4757.17669 -4665.34482 -4591.48988 -4539.14819 -4366.31556 -4022.54944 -3567.27313 -2491.26300 -2101.00819 -1614.28043 -1326.24228 -969.76865 -793.95497 -610.77652 -510.16988 -321.22796 -297.00367 -228.23576 -172.64008 -84.73415 -62.08076 -56.72872 -23.90325 20.41607 41.79271 55.01734 47.89558 65.12970 39.36556 105.02486 103.17396 174.72880 318.86094 364.51509 472.94103 904.13846 1312.82902 1595.51671 1844.80560 1907.23675 1616.32829 1405.65971 1048.33591 714.78101 758.49225 371.27410 -141.14145 -685.13953 -2295.97234 -3076.93008 -3608.41114 -3604.94694 -3514.14744 -3279.28380 -3124.59545 -3061.80183 -3010.28238 -2990.94014 -2985.22981 -3005.01280 -3026.41420 -3089.47642 -3126.89172 -3190.98656 -3265.25253 -3335.09745 -3384.96737 -3435.62298 -3494.46413 -3536.42136 -3566.72393 -3579.07245 -3588.30715 -3589.83792 -3586.93200 -3572.74122 -3562.39998 -3537.09346 -3524.79917 -3511.23005 -3477.98853 -3449.50154 -3434.41947 -3411.66396 -3393.79072 -3372.62331 -3344.89074 -3334.81403 -3325.42330 -3311.58848 -3311.68848
-5684.44170 -5684.34170 -5708.91806 -5754.80920 -5787.00296 -5814.64670 -5827.09576 -5857.87781 -5864.05075 -5898.21776 -5892.70996 -5899.77820 -5898.40874 -5901.24079 -5893.29242 -5881.17032 -5894.54214 -5885.37799 -5882.95313 -5874.83712 -5866.55801 -5864.75419 -5859.26248 -5850.38997 -5845.43015 -5843.12431 -5844.17542 -5830.46173 -5822.10372 -5812.10406 -5798.64025 -5800.40320 -5790.23256 -5763.36624 -5763.14075 -5758.48545 -5737.07267 -5728.39717 -5704.26349 -5686.29918 -5661.11674 -5623.83372 -5604.18096 -5554.17913 -5514.15685 -5445.51544 -5363.05098 -5265.13614 -5163.55239 -5089.83204 -4990.68243 -4864.51595 -4798.39229 -4700.38925 -4520.55535 -4440.52624 -4318.98228 -4048.71254 -3407.61796 -2676.08181 -2370.62277 -1708.30750 -1414.44224 -1154.59874 -939.40052 -719.58377 -514.95078 -400.66624 -302.19502 -243.81557 -159.97679 -67.25342 -55.48346 -28.03533 23.69035 54.47387 85.86455 85.95912 129.44040 131.07829 104.33132 375.58781 742.99431 542.33588 606.95160 778.05037 1027.87808 1215.63206 1426.80943 1512.48743 1595.24711 1246.08581 1001.98325 847.68204 754.55188 191.41842 235.58600 96.91291 -713.20487 -1471.76746 -3048.30024 -3617.60883 -3539.26371 -3412.34771 -3313.86209 -3191.49349 -3082.90619 -3046.24164 -3025.87653 -3018.48300 -3025.99278 -3043.36163 -3085.01566 -3123.42530 -3172.60106 -3226.17670 -3302.48515 -3381.39611 -3434.02235 -3505.17991 -3543.10966 -3558.91716 -3583.65488 -3590.84561 -3592.72804 -3585.53043 -3574.91993 -3559.40816 -3532.83541 -3514.74081 -3490.66256 -3467.15527 -3451.52323 -3428.11718 -3405.71420 -3389.87359 -3366.71670 -3353.50054 -3338.98282 -3326.26445 -3316.45774 -3304.76513 -3304.86513
-5749.86142 -5749.76142 -5782.49458 -5804.27704 -5841.65288 -5866.31864 -5907.62577 -5904.05091 -5925.67354 -5930.67316 -5932.74430 -5931.81104 -5930.67365 -5930.60319 -5920.73156 -5922.16248 -5910.75196 -5905.19774 -5901.96407 -5895.43260 -5887.85035 -5879.44698 -5873.95017 -5869.13411 -5858.91723 -5856.68802 -5849.39143 -5842.89275 -5834.50649 -5826.19358 -5819.76060 -5811.53096 -5804.36046 -5797.03078 -5787.18259 -5772.87908 -5761.19323 -5746.89235 -5739.55931 -5721.40884 -5687.08551 -5671.85348 -5636.17110 -5588.00517 -5548.48334 -5457.74560 -5400.91062 -5319.32932 -5241.31467 -5033.51860 -4784.89636 -4432.00675 -4247.64286 -4310.04566 -4108.20813 -4362.65825 -4251.29334 -4074.30797 -3634.64194 -3282.47892 -2466.29114 -2223.96230 -1366.22083 -1089.60603 -921.26074 -662.88340 -607.10964 -485.10871 -328.96347 -204.66659 -191.85957 -55.65306 -52.66601 12.35141 162.97855 257.51793 320.54291 280.88435 272.00731 451.86496 404.50133 693.23668 984.77568 1119.91841 1061.66382 821.04218 731.66399 922.31464 1083.98920 861.31790 905.30280 643.32119 637.99406 461.49546 284.25960 -56.17824 -200.37725 -494.03153 -1446.28987 -2257.28260 -3173.02078 -3543.78675 -3412.83937 -3267.38749 -3170.63906 -3141.40457 -3081.37906 -3065.88983 -3067.78557 -3059.52158 -3057.58825 -3097.34905 -3116.74230 -3162.13607 -3244.81635 -3293.05825 -3358.80454 -3405.64616 -3473.90826 -3515.59901 -3555.07839 -3580.58311 -3593.91087 -3593.83664 -3584.95071 -3570.16265 -3563.92011 -3534.25273 -3511.85592 -3494.79209 -3463.99605 -3455.59300 -3420.21080 -3401.68747 -3389.94507 -3366.95456 -3353.98423 -3338.29662 -3328.33080 -3316.47198 -3305.08683 -3298.78475 -3298.88475
-5805.41916 -5805.31916 -5832.05293 -5849.42915 -5873.23991 -5894.14459 -5922.06634 -5929.84106 -5944.51440 -5951.01814 -5950.19134 -5949.74762 -5948.29877 -5940.28791 -5935.48281 -5928.76643 -5921.06794 -5915.44646 -5908.57509 -5895.45995 -5891.22278 -5883.82951 -5875.80171 -5866.77287 -5863.11948 -5852.08324 -5841.34218 -5834.70610 -5822.11913 -5819.76683 -5812.15440 -5810.05327 -5804.44785 -5795.85252 -5787.13623 -5779.50979 -5772.89149 -5764.80071 -5751.62715 -5739.33189 -5723.34870 -5694.27125 -5666.39342 -5632.94269 -5574.02661 -5521.47818 -5456.49046 -5359.73903 -5301.43599 -4752.09796 -4117.09452 -3451.86312 -2783.86721 -2843.16738 -2819.08843 -3668.54041 -4086.34864 -3857.59543 -3694.16811 -3233.10242 -2848.71047 -2449.24405 -1568.02140 -1211.25366 -928.97912 -833.19728 -670.22534 -460.10626 -271.99112 -145.48498 -85.30511 117.67434 364.61370 440.25345 608.93271 691.12442 746.97547 889.39612 811.11078 928.85286 1126.49446 931.12311 919.43349 983.95311 766.28837 492.20565 333.97366 475.50376 484.94212 530.12627 601.73293 396.96922 262.38780 230.22634 -11.64005 -1079.37698 -1720.18366 -1172.52121 -1883.69280 -3067.89376 -3512.91212 -3419.62727 -3316.91741 -3204.15843 -3184.38491 -3158.71205 -3098.23069 -3081.66857 -3085.56579 -3114.87515 -3111.46926 -3153.77103 -3192.96862 -3209.41921 -3280.81177 -3339.79407 -3403.29502 -3446.89830 -3502.39013 -3531.49222 -3573.43176 -3590.93052 -3595.19878 -3588.40053 -3575.85776 -3557.54837 -3537.62926 -3506.53278 -3484.59041 -3460.04908 -3447.38045 -3415.52877 -3398.24650 -3381.32659 -3364.22176 -3355.42171 -3340.43144 -3327.95189 -3315.96940 -3305.22815 -3299.76520 -3294.43714 -3294.53714
-5851.66967 -5851.56967 -5874.62379 -5895.54010 -5917.13714 -5933.01583 -5942.60951 -5948.15989 -5954.40708 -5956.73986 -5957.11283 -5949.72331 -5945.09617 -5937.43094 -5926.91796 -5921.70342 -5916.30091 -5907.08530 -5897.12698 -5888.14193 -5877.68334 -5870.09775 -5861.50078 -5851.63685 -5836.45409 -5827.22674 -5818.18406 -5810.50513 -5806.38137 -5794.72865 -5786.92140 -5782.95465 -5787.43518 -5781.21525 -5780.51404 -5774.76196 -5772.40537 -5765.71563 -5761.19204 -5743.87434 -5727.68851 -5704.93101 -5672.65682 -5639.82719 -5601.71331 -5575.33876 -5513.88344 -5398.69879 -5183.95897 -4377.38609 -3336.64492 -2638.11846 -2099.59327 -2005.06817 -2120.89138 -3045.63724 -3379.75189 -3765.00310 -3741.60359 -3544.06607 -3134.90438 -2508.66395 -1684.34308 -1409.59581 -1075.94439 -864.11414 -726.95664 -433.10509 -269.54184 -103.48474 4.26177 150.13819 518.68461 961.54675 1208.46075 1258.18234 1343.21126 1544.34220 1415.27282 1267.62204 1273.18826 1043.83890 670.73059 654.51059 275.22471 272.53606 162.34096 262.98824 219.68918 409.27134 459.73458 304.81154 26.26026 13.03136 -1544.08361 -3199.83770 -3072.34502 -2649.92275 -2966.69220 -3327.46336 -3545.10187 -3446.98913 -3293.07763 -3243.45194 -3200.14627 -3151.20104 -3122.89130 -3106.72193 -3108.82120 -3129.30039 -3177.48056 -3194.86568 -3242.12075 -3274.39156 -3330.81913 -3368.11837 -3428.41324 -3469.94870 -3523.21420 -3551.63485 -3582.88535 -3591.24169 -3586.88306 -3573.74198 -3566.44017 -3545.45530 -3514.49939 -3483.80413 -3467.27716 -3427.82483 -3414.81938 -3396.32469 -3376.32292 -3361.97492 -3344.78368 -3334.11566 -3323.48649 -3314.39557 -3308.98624 -3298.84876 -3295.87282 -3291.84058 -3291.94058
-5883.39311 -5883.29311 -5896.78306 -5916.26680 -5928.69088 -5941.11198 -5947.67259 -5949.85194 -5952.22952 -5940.53738 -5943.09442 -5941.30960 -5930.86498 -5924.68153 -5910.54711 -5903.85422 -5893.94900 -5882.25689 -5876.80522 -5861.47741 -5858.81186 -5840.53244 -5839.86045 -5826.31891 -5814.95601 -5803.38519 -5794.28426 -5784.99026 -5780.92778 -5773.23956 -5767.11981 -5766.64103 -5762.81605 -5764.18702 -5761.47512 -5761.34835 -5758.53935 -5757.97881 -5752.27482 -5743.03896 -5726.58241 -5709.70065 -5680.87606 -5646.78098 -5620.03772 -5565.98921 -5507.07916 -5333.67767 -4705.34838 -3842.55674 -2734.19931 -2156.46703 -1674.97528 -1583.08938 -1753.73064 -2181.91943 -3172.32103 -3175.96066 -3275.89405 -2919.81927 -2553.82111 -2270.36182 -1782.71230 -1268.58084 -990.78632 -851.85852 -608.29412 -426.45743 -235.38121 -52.24981 75.80281 323.89768 689.71211 901.83337 1125.91109 1186.56822 1149.28654 1295.48418 985.98879 952.66680 688.73769 536.74284 297.61699 129.79904 102.87687 184.63205 77.12899 90.44375 73.31638 160.00780 -600.95402 -291.70780 -691.25550 -961.61703 -1606.10460 -2857.38820 -3536.75750 -3356.70071 -3599.29590 -3598.38852 -3537.50876 -3423.99935 -3336.80523 -3253.63718 -3218.43784 -3174.20617 -3138.73862 -3123.05766 -3138.69716 -3188.59908 -3241.22578 -3275.77389 -3277.80213 -3292.42964 -3352.58657 -3410.08981 -3454.80165 -3514.14455 -3547.02884 -3572.31353 -3583.66684 -3582.28000 -3575.82993 -3559.83464 -3542.15726 -3515.03412 -3488.04010 -3451.50756 -3440.57224 -3412.00173 -3390.36693 -3373.15898 -3356.81416 -3347.28444 -3327.94113 -3323.82137 -3310.53137 -3305.48329 -3302.60182 -3296.19859 -3293.19215 -3290.68766 -3290.78766
-5902.38792 -5902.28792 -5914.74582 -5922.83315 -5934.51989 -5939.96890 -5941.10479 -5939.74221 -5931.40235 -5920.86185 -5914.19542 -5910.83508 -5914.45987 -5898.92330 -5888.42412 -5885.37518 -5872.14230 -5860.59986 -5850.99998 -5841.41742 -5834.64884 -5815.10044 -5801.90691 -5790.61680 -5791.17087 -5773.39858 -5763.56745 -5750.74671 -5739.98084 -5737.17029 -5732.80548 -5726.64834 -5732.75811 -5738.32460 -5740.66159 -5738.82518 -5739.95294 -5741.90615 -5736.23759 -5735.17727 -5716.00269 -5698.03025 -5684.80559 -5645.19695 -5571.21196 -5476.34416 -5321.12262 -4967.47032 -4248.30861 -3184.39804 -2500.06117 -1750.16563 -1605.43033 -1519.98865 -1562.97595 -1778.86049 -1967.78394 -2151.56420 -2141.90353 -1970.70556 -1599.06736 -1424.98933 -1151.97740 -985.81795 -872.27578 -676.20811 -557.56184 -334.65784 -198.24803 -37.46087 12.87169 74.20910 299.28157 470.86366 329.54738 637.47853 451.18095 451.89160 585.68708 465.22532 115.14467 256.14776 100.91517 46.60548 19.29776 69.02575 50.24429 -82.36638 -3.13207 -1034.58461 -1676.03313 -1731.36669 -2689.03199 -2594.40248 -2068.43889 -3451.12930 -3662.86677 -3686.91405 -3657.22898 -3613.52516 -3509.20045 -3422.92674 -3336.02730 -3258.24887 -3229.16251 -3195.84790 -3161.54760 -3150.25070 -3179.75219 -3200.23212 -3265.30037 -3321.24643 -3326.98645 -3360.01510 -3398.46359 -3429.27950 -3483.07810 -3529.36611 -3556.92545 -3577.32907 -3580.35221 -3572.23932 -3560.61615 -3544.99028 -3521.49108 -3486.18375 -3470.08638 -3436.01322 -3407.36594 -3395.87423 -3368.27882 -3351.90218 -3343.71030 -3324.62469 -3317.93370 -3310.61951 -3304.56311 -3299.17147 -3295.39368 -3292.73552 -3292.20909 -3291.31266 -3291.41266
-5911.09494 -5910.99494 -5918.19400 -5923.56556 -5927.70918 -5929.32122 -5926.80457 -5921.66927 -5916.68351 -5907.59478 -5901.25275 -5894.49916 -5882.15513 -5875.58507 -5864.27968 -5853.30503 -5838.23543 -5836.77754 -5817.56010 -5807.61908 -5796.32418 -5791.04681 -5775.16491 -5765.98086 -5749.44198 -5737.03966 -5726.92125 -5717.13365 -5707.08237 -5703.56624 -5708.06157 -5708.04471 -5709.07729 -5715.56533 -5721.05448 -5721.32850 -5727.52651 -5720.71757 -5725.48546 -5725.36349 -5717.29536 -5692.00577 -5686.26409 -5627.84534 -5409.67990 -5078.37426 -4827.75809 -3945.07930 -3461.82496 -2487.28407 -1978.35689 -1679.76884 -1534.14656 -1470.01610 -1439.80033 -1486.75873 -1545.63311 -1489.13825 -1407.35173 -1200.96207 -1018.78641 -943.20471 -917.13943 -755.64897 -593.21503 -409.19589 -307.86058 -249.53551 -148.31449 -86.82276 -56.22073 6.60319 31.35095 28.83717 74.23216 152.13175 180.68981 122.11159 197.13210 70.93461 25.22254 39.90582 -43.69806 -97.52490 -23.86754 -118.47956 -142.72468 -203.46196 -915.04917 -2380.42238 -3538.98165 -3638.13532 -3240.80351 -3364.94474 -3017.27815 -3652.13871 -3695.41148 -3680.25324 -3633.72584 -3545.09665 -3496.41597 -3421.59506 -3337.30022 -3274.86819 -3234.68013 -3204.26530 -3183.02750 -3190.73085 -3212.69926 -3272.91175 -3343.68679 -3360.55847 -3358.85314 -3384.39437 -3420.49179 -3472.09587 -3501.89074 -3536.03419 -3562.77958 -3575.58049 -3573.17747 -3559.62196 -3539.86509 -3524.55225 -3500.59909 -3467.31286 -3440.49388 -3418.10518 -3387.22975 -3376.86701 -3352.80032 -3340.13074 -3328.56877 -3320.70580 -3311.75697 -3303.91307 -3299.23978 -3295.80576 -3294.17834 -3293.10990 -3292.76209 -3293.30869 -3293.40869
-5908.75636 -5908.65636 -5911.95014 -5916.46106 -5914.87562 -5910.48411 -5909.76132 -5905.08484 -5898.12179 -5889.53121 -5872.77294 -5870.47547 -5859.49757 -5856.20187 -5838.57669 -5829.13682 -5817.57709 -5808.50086 -5794.60014 -5785.71001 -5780.63947 -5759.42343 -5747.54178 -5744.45747 -5726.42314 -5713.90054 -5695.14339 -5693.14688 -5682.46680 -5671.63585 -5673.57647 -5662.52953 -5682.09758 -5687.68525 -5698.34664 -5708.59701 -5713.64822 -5710.84332 -5716.85579 -5710.07955 -5705.72548 -5679.27251 -5637.58778 -5530.05471 -4645.26786 -4273.15125 -3635.54821 -2977.06430 -2381.63243 -2009.94296 -1692.34487 -1601.07337 -1484.64692 -1411.91252 -1399.12083 -1397.05270 -1378.11117 -1336.28141 -1211.60720 -1091.56826 -986.02921 -913.40607 -804.50207 -550.17904 -390.74143 -259.99561 -122.73441 -81.23191 -108.38860 -97.48147 -97.67697 -77.32436 -56.18402 -56.88606 -23.73731 35.42085 57.66347 15.80035 -24.71768 -32.57604 -40.61928 -89.85662 -264.97543 -358.48472 -358.82149 -340.40793 -355.74362 -1087.28470 -1931.44336 -2806.13140 -3830.63922 -3911.63841 -3758.90190 -3690.23688 -3657.12271 -3650.26729 -3689.96609 -3655.07345 -3613.15667 -3523.52932 -3475.80785 -3409.53023 -3344.75176 -3287.01110 -3250.12737 -3218.68411 -3207.93977 -3221.95424 -3262.90550 -3322.85556 -3406.90035 -3429.27308 -3407.29203 -3414.14980 -3450.91689 -3480.69990 -3513.86025 -3542.47106 -3556.85249 -3561.54929 -3554.74974 -3535.65749 -3530.22943 -3513.22997 -3470.93956 -3436.52194 -3421.70192 -3392.56501 -3371.35021 -3356.89953 -3339.31292 -3328.45201 -3320.63186 -3308.93476 -3303.76298 -3299.69849 -3296.27844 -3294.15465 -3293.88560 -3294.15570 -3295.42712 -3296.50916 -3296.60916
-5901.14236 -5901.04236 -5900.36086 -5898.73543 -5896.36115 -5896.41357 -5891.56738 -5882.05688 -5873.66276 -5869.67365 -5857.73119 -5850.02776 -5836.67960 -5822.50282 -5811.53025 -5801.83774 -5786.21112 -5783.90378 -5768.80150 -5758.23632 -5749.91785 -5741.02190 -5737.05791 -5710.47073 -5697.65673 -5686.99033 -5672.38177 -5659.05282 -5648.14298 -5651.36281 -5646.14261 -5646.20431 -5648.94884 -5660.39936 -5676.35658 -5689.14766 -5705.92052 -5709.20888 -5711.71354 -5708.08035 -5704.54495 -5685.92152 -5501.77088 -5175.04483 -3880.28389 -3469.10770 -3093.42081 -2337.69149 -1945.53764 -1781.69014 -1577.32638 -1483.32461 -1391.51857 -1429.36285 -1403.00200 -1550.46824 -1498.23769 -1292.07523 -1118.54431 -1079.52994 -1010.14406 -964.42478 -914.18235 -493.56051 -228.78435 -72.13166 284.93996 407.00677 150.52178 -16.38468 -102.99926 -125.94724 -118.37083 -89.12663 -83.30492 -5.56363 33.89314 -96.78139 -162.87880 -118.92423 -284.33610 -699.18364 -1284.89101 -2505.54203 -2124.87680 -1954.69491 -2076.96696 -2814.19213 -3572.11592 -3666.04561 -3986.93202 -3915.01704 -3848.59422 -3815.34562 -3768.46249 -3735.73046 -3680.51912 -3657.71894 -3572.69978 -3507.90204 -3458.92744 -3419.74922 -3343.05862 -3291.71570 -3266.90869 -3233.02670 -3232.84340 -3255.25039 -3303.39727 -3385.96556 -3452.71560 -3452.30705 -3437.40225 -3448.29875 -3463.54655 -3497.47559 -3517.65018 -3535.25782 -3551.01219 -3544.19500 -3533.51168 -3519.21588 -3498.70407 -3481.38566 -3456.36275 -3428.12716 -3399.09676 -3374.03073 -3359.31988 -3348.05000 -3327.47043 -3319.57850 -3311.61134 -3306.02187 -3301.21986 -3297.40387 -3295.73433 -3294.81312 -3295.33645 -3297.12149 -3298.80885 -3300.79928 -3300.89928
-5888.33245 -5888.23245 -5885.83440 -5884.56928 -5881.24046 -5877.10549 -5867.43853 -5865.27128 -5857.79202 -5848.41538 -5836.21496 -5826.48208 -5815.02915 -5808.33714 -5796.30561 -5785.34095 -5777.15782 -5760.52144 -5752.63809 -5744.41776 -5735.55410 -5724.21761 -5704.50131 -5688.20819 -5673.00410 -5660.46841 -5646.14704 -5632.18700 -5628.08791 -5617.12564 -5619.57588 -5623.32381 -5632.04130 -5651.22268 -5656.63377 -5678.30642 -5698.73333 -5704.59909 -5710.63414 -5715.55043 -5716.45371 -5703.66397 -5219.12626 -4598.04597 -3668.21171 -2619.67641 -2102.32707 -1868.25544 -1722.33265 -1624.68520 -1466.27055 -1411.40662 -1473.93168 -1610.93267 -1994.04800 -2013.20768 -1744.57829 -1358.02172 -1135.72826 -1131.71815 -1089.05167 -1053.60523 -970.47772 -277.38762 -87.11943 253.59663 662.98186 737.64767 444.06285 25.98733 -236.86699 -472.41635 -502.24390 -311.74021 -256.49244 -148.21374 -205.43284 -304.28827 -553.39077 -845.33356 -904.41653 -1951.98740 -3550.62815 -3402.99661 -3351.55421 -3530.62159 -3486.57880 -3582.70771 -4004.31439 -3994.45472 -3990.38217 -3907.76332 -3865.59958 -3808.19273 -3781.35080 -3747.56907 -3673.69574 -3626.79302 -3561.26291 -3508.36577 -3445.36866 -3408.77577 -3347.07691 -3298.23440 -3266.87563 -3252.00282 -3281.21287 -3299.58340 -3375.88990 -3431.68566 -3502.33409 -3484.91260 -3474.10706 -3470.51910 -3474.54459 -3491.71434 -3511.99813 -3528.41024 -3535.60234 -3530.99747 -3524.62611 -3501.08197 -3483.16887 -3472.46113 -3441.68430 -3407.13791 -3380.87195 -3363.79457 -3348.30664 -3332.96735 -3324.74563 -3315.90677 -3307.75367 -3300.01528 -3298.24529 -3296.69512 -3296.10469 -3297.12959 -3297.92447 -3301.32262 -3303.65434 -3305.99739 -3306.09739
-5873.53822 -5873.43822 -5871.43579 -5866.74511 -5862.35576 -5860.13610 -5852.91578 -5848.88131 -5840.43512 -5834.27615 -5820.87587 -5814.56389 -5801.16808 -5793.38410 -5782.85864 -5770.71276 -5758.38205 -5744.73226 -5734.56084 -5726.88123 -5714.82153 -5704.26977 -5687.29225 -5674.01447 -5659.92934 -5648.35358 -5635.97804 -5616.68218 -5604.70539 -5594.11367 -5592.73990 -5596.12720 -5604.45742 -5623.63485 -5643.22676 -5666.03365 -5684.20354 -5708.68874 -5721.44247 -5721.36882 -5721.17683 -5618.41959 -4984.82956 -4249.63314 -3043.71393 -2187.40027 -1968.84838 -1776.64901 -1752.45703 -1651.29593 -1516.25336 -1391.81518 -1722.75240 -2202.41147 -2869.84182 -2926.93811 -2630.35871 -1653.27992 -1374.84488 -1424.90197 -1719.12508 -1410.35691 -1442.65050 -735.21052 39.43968 571.32455 728.09052 594.30444 320.55643 -490.90531 -943.87126 -1250.58511 -1556.12487 -1201.88879 -1384.97718 -1134.09734 -1436.98221 -2028.60685 -2540.01567 -2617.74259 -2955.59645 -3813.97568 -4091.87007 -4070.05506 -4015.04792 -3997.73438 -3995.18702 -4002.89752 -3997.70945 -3989.84596 -3950.28514 -3876.71642 -3844.80694 -3801.12421 -3762.66001 -3733.73605 -3663.56981 -3606.48904 -3553.18158 -3498.59123 -3448.57051 -3396.07877 -3353.20412 -3304.41923 -3286.52421 -3293.41891 -3310.59187 -3359.49075 -3404.38681 -3494.83195 -3551.29487 -3527.14637 -3509.09215 -3495.38189 -3494.05138 -3491.35222 -3498.58068 -3518.21077 -3520.99241 -3520.22869 -3510.09392 -3481.43712 -3468.65337 -3443.40319 -3421.33891 -3393.54164 -3368.53900 -3355.08268 -3337.20445 -3325.85407 -3318.07086 -3308.21441 -3303.97755 -3300.74303 -3298.59640 -3298.18125 -3298.83727 -3300.50196 -3303.46310 -3306.30523 -3309.01372 -3311.91685 -3312.01685
-5857.70484 -5857.60484 -5854.29572 -5848.58831 -5848.54336 -5847.53386 -5840.14610 -5832.00200 -5829.01879 -5822.11552 -5810.13082 -5801.06973 -5789.38902 -5779.46094 -5767.78193 -5757.14348 -5745.56542 -5737.43997 -5730.45378 -5715.19143 -5705.06991 -5697.09921 -5683.09784 -5666.01258 -5653.02618 -5636.90892 -5618.17720 -5602.34127 -5582.09817 -5577.40372 -5574.47943 -5576.59365 -5588.38774 -5598.75611 -5624.86704 -5654.44968 -5671.35785 -5681.40461 -5697.12975 -5708.31900 -5700.19831 -5510.70427 -4854.53008 -3772.44940 -2485.00401 -2013.54124 -1817.01888 -2067.20769 -2181.23240 -1920.95730 -1634.31768 -1759.86611 -2350.38783 -3168.70817 -3865.76322 -3816.14465 -3177.90616 -2274.01973 -2094.74887 -2360.05557 -2602.04612 -3376.68418 -2757.26597 -2732.68791 -1767.53076 364.79194 384.60319 -70.63047 -1531.23310 -1974.18228 -2149.43624 -2191.18848 -2254.38292 -2215.93591 -2340.17001 -2742.72829 -3834.57025 -3839.86951 -3643.14651 -4258.34089 -4253.82305 -4069.41971 -4121.06088 -3983.06842 -4000.07418 -4007.34130 -3997.94013 -3997.01459 -3990.78632 -3964.35758 -3924.88054 -3867.25733 -3832.35282 -3810.25015 -3755.03621 -3700.05877 -3656.39673 -3603.87998 -3547.71871 -3496.95985 -3452.62575 -3391.72630 -3345.93681 -3322.04680 -3308.23157 -3312.22545 -3340.40699 -3392.68704 -3452.78833 -3569.35507 -3613.39425 -3572.07316 -3527.18900 -3520.43869 -3513.30230 -3496.27097 -3498.66814 -3504.65827 -3498.94160 -3497.44940 -3487.91331 -3479.85689 -3468.54226 -3432.74084 -3401.55165 -3385.83560 -3358.07543 -3344.64675 -3329.81566 -3321.43452 -3312.48955 -3307.53575 -3303.45628 -3301.65716 -3301.33316 -3300.73702 -3303.55553 -3305.76551 -3307.43490 -3311.06837 -3314.47372 -3318.43263 -3318.53263
-5842.83522 -5842.73522 -5838.57184 -5835.28094 -5834.33778 -5827.64283 -5826.34619 -5823.96098 -5817.29962 -5813.74873 -5805.18614 -5791.83769 -5782.82245 -5772.81110 -5761.82310 -5750.24284 -5738.39135 -5728.03082 -5718.93007 -5707.73931 -5694.54798 -5683.80204 -5673.27157 -5659.35794 -5638.98466 -5627.99572 -5609.67549 -5588.04447 -5578.26192 -5565.09906 -5555.16577 -5558.25247 -5567.96979 -5580.16306 -5611.50147 -5613.96232 -5638.53075 -5653.48938 -5669.74540 -5686.86590 -5671.78076 -5202.38126 -4873.56627 -3148.17549 -2344.98937 -2163.50166 -2481.10782 -2810.90238 -3157.99460 -2963.65305 -2225.36158 -1964.18543 -2549.46029 -3348.14633 -4362.48647 -4382.41582 -3987.54130 -3412.56277 -3327.75560 -3719.57791 -3978.32897 -4193.63160 -4307.58235 -4065.67182 -3414.64942 -2453.02651 -2364.11486 -1910.46061 -2886.63897 -2927.70807 -3209.27001 -2863.50186 -3060.46214 -3400.66388 -3427.70438 -3737.17710 -4149.65670 -4245.15871 -4268.43291 -4254.19937 -4242.41647 -4192.89721 -4101.88799 -4026.24242 -4013.95423 -4004.99414 -3998.22027 -3985.14935 -3955.94981 -3922.87203 -3903.42387 -3861.36953 -3846.12426 -3794.20947 -3750.52309 -3696.81554 -3654.38839 -3599.70685 -3548.36969 -3496.32747 -3456.35728 -3400.63821 -3363.55529 -3334.65361 -3338.96998 -3360.50759 -3395.81676 -3447.23872 -3527.24868 -3612.47694 -3640.84231 -3598.83448 -3554.96966 -3524.84957 -3508.96027 -3491.84392 -3493.46114 -3497.60795 -3488.44551 -3482.12287 -3471.31837 -3466.92323 -3458.77221 -3419.17663 -3389.49261 -3369.80453 -3348.81905 -3336.51249 -3327.54795 -3318.12475 -3312.16607 -3306.87156 -3304.58026 -3302.97894 -3303.83543 -3306.17304 -3307.14769 -3310.46567 -3313.85160 -3319.13851 -3320.73865 -3325.41180 -3325.51180
-5829.25603 -5829.15603 -5826.05932 -5825.96547 -5823.16224 -5820.48571 -5820.87441 -5816.95367 -5808.22434 -5802.72575 -5797.85869 -5788.68088 -5783.18027 -5762.66449 -5756.87112 -5745.08053 -5731.96905 -5720.41678 -5710.96116 -5700.39635 -5691.87806 -5676.40350 -5663.92178 -5646.92165 -5636.76787 -5615.79024 -5599.24222 -5580.00128 -5561.22877 -5550.17379 -5543.08093 -5543.59795 -5550.43457 -5552.49623 -5582.23829 -5602.54842 -5620.30444 -5642.82131 -5673.69225 -5659.36696 -5603.91606 -5071.30040 -4470.58486 -3238.42736 -2755.31241 -3009.25687 -3477.34078 -3897.93546 -4046.14370 -4056.85801 -3026.73424 -2329.31810 -2691.16448 -3393.31939 -4520.15632 -4774.53854 -4670.86934 -4478.79514 -4438.71461 -4564.98870 -4689.98677 -4766.80071 -4766.72830 -4599.59356 -4568.72030 -4311.46792 -4221.50218 -4489.63446 -4393.79476 -4136.73299 -3900.48616 -4210.78150 -4082.96947 -4012.31740 -4040.36898 -4225.14066 -4249.71607 -4270.61648 -4257.51402 -4238.15907 -4198.93200 -4150.70038 -4116.10763 -4050.44342 -4027.00417 -4014.54933 -3992.05619 -3959.68332 -3946.86936 -3919.31517 -3885.63000 -3860.56717 -3832.17303 -3792.90813 -3735.75696 -3699.31824 -3649.32124 -3592.03255 -3547.75658 -3502.05276 -3449.86662 -3406.93150 -3373.05593 -3353.62037 -3364.35880 -3388.60286 -3426.35030 -3488.33554 -3578.11096 -3617.06361 -3668.38900 -3603.71300 -3569.55866 -3526.67264 -3495.19800 -3483.44795 -3471.87909 -3467.13234 -3472.58292 -3460.50553 -3450.30534 -3455.31683 -3439.95522 -3403.88368 -3381.20091 -3352.91332 -3341.21556 -3332.07549 -3322.15972 -3317.63760 -3311.06106 -3309.07646 -3307.11345 -3308.72028 -3307.59615 -3309.63778 -3312.63766 -3316.44067 -3322.06976 -3325.80088 -3328.20113 -3332.57742 -3332.67742
-5817.77876 -5817.67876 -5816.02351 -5814.02974 -5813.31857 -5812.13689 -5808.52462 -5807.24340 -5803.67220 -5798.08654 -5794.46322 -5779.22574 -5762.57488 -5743.47819 -5735.76147 -5735.92024 -5727.15702 -5713.58030 -5704.93316 -5691.08126 -5680.80838 -5671.35448 -5656.68059 -5640.92115 -5630.93710 -5607.46048 -5582.90087 -5571.64655 -5550.83090 -5540.71250 -5532.48717 -5530.76345 -5529.80626 -5539.95354 -5553.31167 -5579.65020 -5610.94859 -5622.96498 -5647.52391 -5644.73584 -5559.57148 -5284.76457 -4373.50607 -3639.37768 -3378.07735 -4075.51813 -4472.24897 -4793.10267 -4980.91389 -4609.50822 -4404.13987 -3426.75807 -3128.74200 -3683.25532 -4275.20602 -4735.12685 -4817.75252 -4799.04164 -4823.70498 -4867.36622 -4830.14769 -4801.40027 -4770.22732 -4746.28015 -4673.89799 -4655.36140 -4605.72078 -4593.81781 -4543.24780 -4464.75270 -4342.09469 -4331.88075 -4276.03325 -4322.44669 -4309.79174 -4304.50753 -4281.50418 -4262.85988 -4241.68353 -4217.06851 -4187.68370 -4142.78278 -4105.73895 -4069.58386 -4036.65081 -4020.30785 -3989.70860 -3961.32300 -3934.38468 -3906.04607 -3880.32076 -3860.91567 -3811.96723 -3769.65968 -3718.87182 -3676.65155 -3639.30678 -3595.98680 -3546.06938 -3498.87635 -3457.13829 -3423.91874 -3384.16112 -3380.66611 -3390.85609 -3430.27457 -3454.56402 -3532.71789 -3601.97511 -3685.12353 -3679.03905 -3615.57311 -3568.07749 -3513.64684 -3479.88731 -3457.99667 -3449.37251 -3442.56320 -3456.82374 -3448.21827 -3443.65130 -3440.51589 -3411.34054 -3385.14364 -3362.70075 -3350.06850 -3340.57953 -3328.26244 -3322.80654 -3316.02308 -3312.80486 -3310.39470 -3310.80661 -3313.68966 -3314.88797 -3318.96334 -3319.29794 -3321.71630 -3327.05162 -3330.16513 -3336.31502 -3339.85035 -3339.95035
-5808.14203 -5808.04203 -5807.46810 -5804.28213 -5805.18692 -5805.67481 -5806.05189 -5802.48454 -5798.59907 -5793.24840 -5786.14225 -5765.97431 -5750.83311 -5748.91693 -5732.67852 -5721.06213 -5714.73921 -5706.07291 -5694.40731 -5685.37678 -5668.53849 -5658.49713 -5639.81636 -5634.28514 -5620.28766 -5602.35069 -5582.26635 -5569.19515 -5544.76381 -5530.42616 -5521.00531 -5516.45905 -5516.30217 -5523.68604 -5533.53109 -5550.45727 -5574.04220 -5588.27173 -5611.51533 -5629.04447 -5594.74804 -5325.43359 -4753.49789 -4265.46279 -4451.99661 -4668.46025 -5176.84627 -5329.56887 -5264.14353 -5162.42155 -4587.15169 -4058.28753 -3607.38372 -3837.27037 -4035.62558 -4650.07786 -4832.58918 -4869.57116 -4865.73561 -4815.95807 -4813.84729 -4818.75221 -4775.69880 -4755.64634 -4687.64872 -4654.48731 -4640.48345 -4585.38462 -4553.10463 -4507.29353 -4452.21032 -4424.90895 -4383.35764 -4361.63027 -4346.88195 -4313.73553 -4281.13166 -4254.95167 -4227.02574 -4200.49978 -4170.74030 -4146.25136 -4115.20613 -4087.09648 -4054.69046 -4023.52373 -3989.08387 -3963.17452 -3926.93050 -3906.07105 -3865.90730 -3843.60464 -3799.06901 -3760.21922 -3719.60086 -3675.07898 -3632.65703 -3595.31917 -3546.49099 -3505.70581 -3467.26657 -3441.49830 -3412.10671 -3407.51781 -3418.16546 -3437.06927 -3499.79325 -3556.31240 -3617.97786 -3698.14508 -3682.91290 -3611.07640 -3560.62853 -3499.74390 -3455.32747 -3437.05942 -3426.44157 -3423.20414 -3427.58036 -3427.19641 -3437.67742 -3426.41491 -3399.58085 -3370.39707 -3357.45769 -3346.22707 -3333.90289 -3326.39883 -3321.90561 -3317.49089 -3315.46388 -3316.72006 -3316.71334 -3317.40824 -3318.83249 -3321.60867 -3325.57975 -3330.18929 -3336.55674 -3339.09598 -3343.81286 -3347.17982 -3347.27982
-5800.02154 -5799.92154 -5799.07282 -5800.69287 -5798.92567 -5799.28613 -5795.80065 -5795.74702 -5791.29297 -5789.73117 -5776.56016 -5764.02363 -5746.99494 -5741.11615 -5725.29283 -5713.38330 -5699.36828 -5690.69887 -5683.27618 -5673.57998 -5660.64800 -5645.94094 -5635.30602 -5624.72972 -5616.83002 -5591.97313 -5577.71260 -5561.27970 -5543.44849 -5521.62709 -5508.30758 -5502.58185 -5495.33283 -5502.53500 -5512.58032 -5518.42613 -5537.48402 -5560.85001 -5588.64613 -5610.97516 -5629.39714 -5538.10619 -5280.62743 -5034.39737 -5087.40465 -5353.87620 -5425.96649 -5401.27878 -5391.31567 -5286.03994 -5031.35736 -4829.58598 -4399.07693 -4291.91043 -4447.10808 -4655.95142 -4832.53590 -4859.29720 -4857.46088 -4831.37346 -4826.15477 -4799.56033 -4760.18155 -4717.23624 -4691.52621 -4644.97066 -4620.39788 -4567.76352 -4536.97000 -4492.43405 -4465.47165 -4424.62865 -4397.52651 -4366.98047 -4340.95956 -4303.40493 -4279.66514 -4245.85526 -4227.28923 -4195.02216 -4163.25000 -4145.04241 -4118.92258 -4084.79616 -4056.75945 -4023.26857 -3986.16636 -3958.96836 -3930.59012 -3903.07875 -3860.78389 -3828.46270 -3787.03919 -3745.61070 -3714.26046 -3676.42818 -3642.00834 -3606.52656 -3554.16407 -3514.29525 -3486.01343 -3452.31456 -3429.54867 -3425.10611 -3436.75581 -3468.47781 -3505.74484 -3587.34691 -3622.23341 -3694.41113 -3677.12572 -3606.71039 -3545.94764 -3489.39660 -3440.13685 -3422.07049 -3409.59094 -3408.07396 -3417.55134 -3426.17560 -3428.93089 -3411.44463 -3391.92189 -3362.05884 -3351.55338 -3342.92212 -3330.84680 -3326.27938 -3322.28173 -3320.67758 -3319.70060 -3320.06430 -3321.47261 -3324.04576 -3326.03637 -3330.07161 -3333.99691 -3336.40987 -3341.67873 -3346.15347 -3349.03320 -3354.61349 -3354.71349
-5793.55642 -5793.45642 -5793.82882 -5792.73590 -5794.96859 -5794.99782 -5793.15783 -5789.78142 -5787.68376 -5778.80482 -5765.26154 -5752.10623 -5734.50419 -5722.39780 -5707.59136 -5701.36740 -5686.84309 -5674.91703 -5667.55606 -5653.96851 -5645.82568 -5636.79856 -5627.75216 -5610.45579 -5598.14396 -5584.73073 -5565.69805 -5549.34455 -5534.14791 -5514.18364 -5497.39910 -5489.21591 -5480.32798 -5478.11754 -5484.83228 -5495.76052 -5522.17239 -5546.45072 -5563.21658 -5587.64416 -5615.77943 -5607.02307 -5526.20536 -5468.05452 -5432.62986 -5470.94035 -5451.95059 -5431.27795 -5352.14048 -5290.27077 -5221.26634 -5003.74556 -4852.69644 -4689.79621 -4649.07204 -4830.28576 -4870.80007 -4864.52962 -4848.98936 -4832.62797 -4815.95106 -4774.27955 -4727.31363 -4695.94925 -4653.95132 -4619.20104 -4580.60873 -4555.95043 -4511.88167 -4482.09241 -4451.66614 -4415.38044 -4370.32363 -4349.15922 -4314.61729 -4289.12284 -4269.25453 -4246.71671 -4222.82615 -4191.02544 -4169.56364 -4138.08671 -4103.88246 -4073.69217 -4045.64773 -4015.82900 -3984.09522 -3949.07976 -3919.88292 -3876.65597 -3842.45313 -3813.95592 -3774.78053 -3741.76443 -3708.13620 -3680.53785 -3637.72715 -3607.39909 -3562.20652 -3524.64109 -3499.39565 -3455.68679 -3440.10956 -3436.46900 -3454.63032 -3496.38428 -3512.52553 -3600.28621 -3659.12560 -3709.09548 -3683.42029 -3588.97280 -3540.28103 -3477.93356 -3433.41437 -3409.32653 -3401.63553 -3398.58332 -3419.72152 -3432.22281 -3418.68658 -3400.22402 -3377.14426 -3360.01279 -3345.58898 -3337.80578 -3332.32812 -3328.07218 -3325.30349 -3323.68068 -3323.13502 -3325.01704 -3327.13696 -3330.68759 -3333.31930 -3336.70036 -3340.93077 -3343.43623 -3347.50933 -3353.40996 -3358.82760 -3362.21965 -3362.31965
-5787.51193 -5787.41193 -5788.09354 -5787.27065 -5789.13734 -5788.27157 -5784.84964 -5783.16589 -5776.28221 -5771.18459 -5756.99198 -5746.54037 -5728.45567 -5716.35216 -5704.88031 -5686.95541 -5679.75896 -5661.77489 -5656.91627 -5639.70425 -5633.67746 -5615.69625 -5609.29454 -5594.38160 -5582.56203 -5571.71741 -5555.87065 -5540.78800 -5520.10470 -5507.70615 -5488.16133 -5479.52835 -5470.10689 -5467.01094 -5467.35485 -5486.55636 -5495.66524 -5528.58745 -5550.16943 -5568.40925 -5590.45204 -5602.99074 -5591.95621 -5567.10614 -5554.80288 -5531.33086 -5474.01462 -5439.61898 -5370.31856 -5330.90741 -5291.12356 -5213.89657 -5085.46018 -4985.12006 -4934.85202 -4890.47186 -4873.16002 -4837.53682 -4828.26297 -4799.13289 -4774.94339 -4720.11897 -4684.55239 -4665.83762 -4623.87633 -4593.81453 -4556.15960 -4522.69985 -4491.50861 -4460.32617 -4437.40925 -4393.11095 -4364.31731 -4340.61017 -4307.82031 -4283.99848 -4257.64836 -4236.70193 -4214.83192 -4190.25173 -4157.60274 -4128.97127 -4088.48260 -4075.19402 -4038.58867 -4015.45371 -3975.32896 -3934.76333 -3903.71848 -3865.05874 -3829.46726 -3802.68511 -3768.93656 -3755.81689 -3708.03139 -3684.56439 -3644.35958 -3607.93961 -3565.97074 -3538.90486 -3502.26652 -3463.03048 -3446.50165 -3443.71624 -3457.65846 -3502.73253 -3543.41524 -3593.23573 -3659.19595 -3697.24703 -3639.40007 -3592.99018 -3519.16779 -3467.37600 -3421.42468 -3405.29706 -3395.29654 -3393.33180 -3405.65452 -3424.85740 -3410.16320 -3389.45025 -3366.30909 -3352.19661 -3345.23876 -3338.77269 -3333.23050 -3331.77227 -3329.90171 -3329.45949 -3328.73845 -3331.80965 -3333.93749 -3335.92628 -3343.59504 -3345.35704 -3349.15905 -3353.49343 -3357.28329 -3361.88032 -3365.38784 -3369.81980 -3369.91980
-5781.86576 -5781.76576 -5781.88654 -5781.65034 -5782.64650 -5779.42232 -5776.76093 -5772.83685 -5767.71425 -5758.11494 -5742.29197 -5733.46083 -5718.03736 -5705.66216 -5683.57325 -5672.19039 -5657.63177 -5639.52675 -5632.21189 -5619.58487 -5610.42021 -5600.58370 -5593.50802 -5581.14752 -5566.29321 -5559.61982 -5543.86046 -5527.13604 -5513.99758 -5488.74227 -5477.05521 -5466.25177 -5456.43099 -5448.17285 -5451.09472 -5462.97042 -5477.15355 -5494.10434 -5526.09802 -5547.12179 -5576.83184 -5576.15194 -5574.39708 -5576.41029 -5553.72992 -5532.12620 -5487.25956 -5447.57503 -5399.00677 -5337.84920 -5273.72068 -5197.04268 -5081.62765 -5009.90676 -4962.35937 -4904.90512 -4863.09348 -4834.52093 -4798.35103 -4766.91118 -4733.69498 -4694.12462 -4652.68836 -4628.62972 -4606.03296 -4553.76675 -4535.26488 -4501.07503 -4462.58994 -4440.91067 -4409.39769 -4376.71589 -4344.17429 -4326.89301 -4294.71416 -4270.44178 -4252.52531 -4224.08102 -4202.99100 -4180.55859 -4156.16964 -4122.31261 -4089.49477 -4076.25286 -4012.95413 -3993.69911 -3964.27123 -3926.08484 -3888.40895 -3849.17197 -3827.46024 -3795.59179 -3768.50487 -3739.63044 -3704.53311 -3683.64354 -3655.80323 -3608.55727 -3580.97912 -3535.35832 -3501.63743 -3467.76439 -3442.73496 -3444.66235 -3456.53828 -3495.17011 -3553.87135 -3598.27410 -3670.66786 -3691.95793 -3654.85571 -3603.82969 -3514.14731 -3478.49017 -3425.64229 -3407.99465 -3397.26983 -3394.92180 -3400.07039 -3404.29753 -3393.03287 -3376.14782 -3360.08300 -3349.52304 -3344.57046 -3340.70466 -3336.29403 -3334.62599 -3334.64199 -3335.41941 -3338.16294 -3338.66353 -3340.92891 -3346.24084 -3348.21676 -3353.46521 -3358.10423 -3362.46124 -3364.88161 -3366.49135 -3373.53565 -3377.58487 -3377.68487
