-4908.15166 -4908.05166 -4909.93492 -4910.12640 -4909.16796 -4911.35684 -4915.68877 -4918.86654 -4921.77704 -4911.27373 -4895.02760 -4825.54006 -4617.24948 -4562.82546 -4214.94515 -3734.85035 -3453.29968 -3107.77490 -2581.42579 -2327.75416 -2016.49211 -1923.75975 -1817.14164 -1809.58452 -1117.33873 -582.57815 -496.51894 -374.53719 -321.36657 -249.02271 -184.12200 -143.42027 -121.81822 -95.65046 -60.34343 -20.18991 29.53355 78.54842 165.82559 178.57224 198.24160 267.69679 327.30888 369.79094 314.24564 285.64466 277.38783 252.11276 241.11572 229.85509 215.98430 210.09851 201.50505 196.78991 195.50562 196.30915 207.73301 214.58253 237.47774 264.91212 268.33746 289.71668 280.58199 279.09834 282.93141 279.67668 276.86713 286.04378 291.17409 294.68492 307.79380 319.10144 335.76806 364.27953 383.97000 402.03769 424.60819 461.96265 487.46520 523.29403 542.16430 592.06596 612.85610 651.52830 693.91003 716.70006 750.80857 780.90593 791.86376 788.28781 758.07339 714.98020 675.09525 630.40275 599.44901 529.03303 504.95991 469.78593 441.99680 386.72618 338.90788 303.80658 274.20271 237.04886 192.64382 139.69048 93.98359 48.77012 38.20620 -6.35694 -118.73905 -328.28877 -1155.01473 -3361.09011 -3861.00483 -3943.74636 -4045.09839 -4103.44609 -4208.13777 -4124.68556 -3533.83939 -1918.52710 -1281.34934 -1374.42347 -1730.83763 -2333.51711 -2676.13008 -3056.89596 -3201.82271 -3231.86515 -3252.02383 -3267.95337 -3272.67475 -3280.20222 -3288.11924 -3295.67456 -3302.29948 -3307.67407 -3316.43578 -3323.33990 -3328.11087 -3333.81758 -3333.91758
-4925.39448 -4925.29448 -4924.62943 -4923.93230 -4930.90803 -4929.50846 -4932.79135 -4936.37357 -4953.29373 -4960.80795 -4917.79859 -4798.53526 -4487.08643 -4135.87411 -3663.39736 -3508.98342 -3299.76286 -3121.06335 -2597.12570 -2292.79115 -2035.32490 -1855.50637 -1831.84302 -1831.86516 -1312.93129 -539.56372 -452.35084 -364.63151 -301.70489 -252.31785 -173.67035 -129.56883 -119.66917 -99.45447 -14.75042 -10.75505 37.92909 133.26850 238.54144 231.68780 237.29238 324.81184 359.93203 354.62088 298.39330 274.43797 267.03928 241.71149 231.86684 219.81835 211.62071 205.91693 203.71820 201.89099 205.21941 210.33995 213.98140 235.89387 268.48242 270.36444 295.97021 306.67270 307.09937 308.06331 297.92611 292.87337 294.67270 299.88201 297.12661 303.34026 311.44778 318.79884 336.45241 362.52582 378.80849 399.07956 428.53173 455.33824 493.92503 523.70206 539.54534 591.76081 618.95137 660.98752 691.68765 725.07313 760.58581 784.21373 796.94617 790.09342 754.07985 727.57582 686.33928 629.09267 568.89621 530.67688 498.69759 475.70742 459.19656 417.46766 366.55896 331.32401 297.30081 230.68580 194.97247 138.82549 118.40774 28.29300 24.66718 -35.07667 -79.06346 -135.19116 -1387.19544 -2631.26579 -3997.16854 -3960.84421 -3998.49134 -4090.69320 -4083.25256 -4048.94479 -2756.05913 -1263.88657 -1194.98049 -1452.81120 -1974.39344 -2439.38121 -2948.80590 -3162.51734 -3211.42058 -3249.51021 -3257.87848 -3262.92284 -3267.41334 -3274.86424 -3284.56976 -3291.43651 -3297.13590 -3303.64843 -3311.78955 -3314.83233 -3322.25615 -3327.73945 -3327.83945
-4946.38646 -4946.28646 -4947.23994 -4946.62238 -4950.92238 -4956.88380 -5002.06119 -5009.75725 -5031.24068 -5081.37289 -5015.59103 -4860.60521 -4534.36961 -4251.47570 -3818.84916 -3695.35705 -3552.55423 -3244.79826 -2688.36633 -2357.93202 -2063.49129 -1947.04124 -1813.71660 -1709.44396 -1368.69850 -522.29528 -443.28625 -367.26813 -284.12763 -253.36459 -194.33011 -135.40185 -107.48388 -48.50985 5.32540 33.41920 56.39156 125.21856 205.29490 274.96637 339.93068 374.02652 340.05571 298.10596 268.83587 242.19028 236.24323 225.25492 222.86950 207.68807 205.12205 202.75865 200.82616 200.13188 205.89147 214.45781 236.96237 271.58875 282.33874 295.67866 319.11709 323.44212 326.31211 321.25021 316.79008 312.67510 306.20197 311.07175 311.75874 310.51328 318.33579 329.03122 344.11891 364.97602 380.56543 408.01661 429.07082 440.63157 483.04846 516.45010 534.62970 586.73744 610.60987 654.93023 689.37981 707.77515 763.44929 784.61954 790.55357 782.94624 754.95138 716.47824 651.50707 584.50145 534.54976 510.40795 479.46710 437.28799 439.22917 409.09438 375.53101 301.63864 267.63048 215.23406 188.11074 117.65780 86.90793 27.94284 15.07461 -46.92401 -93.95103 -137.99962 -1471.46609 -2542.61414 -3907.04433 -3967.00549 -3970.11654 -4043.29324 -4052.52002 -3641.38237 -2074.71365 -815.40235 -884.80587 -1335.01541 -1973.17591 -2509.76196 -2945.90139 -3174.58483 -3228.95898 -3241.97533 -3252.67917 -3255.86590 -3263.46316 -3271.54124 -3279.24128 -3286.22586 -3292.52068 -3297.42803 -3306.82494 -3312.33572 -3317.23365 -3322.70814 -3322.80814
-5004.49002 -5004.39002 -5019.15805 -5020.23454 -5026.56481 -5050.18414 -5086.38207 -5112.50963 -5140.02139 -5153.67909 -5073.84622 -4883.18035 -4676.80509 -4381.77372 -4191.77189 -4171.50112 -4034.46056 -3699.20432 -2894.35081 -2249.89845 -2076.95189 -1967.89143 -1877.01224 -1764.52330 -1066.03733 -557.20064 -450.59073 -374.13689 -281.91622 -236.38902 -191.59948 -137.39498 -91.60788 -35.24732 31.82390 86.45036 121.84589 153.70836 231.38204 288.48949 355.76983 317.16567 276.70561 271.55221 255.72188 225.34783 212.60711 204.25969 201.37238 198.94920 201.38833 198.10509 195.23210 201.90830 219.16473 234.27845 269.75104 289.35312 334.82411 351.21023 349.03460 344.74154 344.96978 345.12342 337.13193 326.63255 319.42535 317.65684 318.83295 316.03300 331.81036 340.45889 355.39472 368.91550 385.18478 404.50860 429.08460 456.20221 489.42778 513.32794 555.00577 578.05734 614.32600 641.79020 691.41351 720.02587 767.34880 776.86575 778.15759 758.59792 732.37523 698.53121 665.27401 594.74415 535.25532 498.91057 478.50458 432.65560 400.91857 384.91588 347.61796 266.03392 248.08848 215.38154 190.90241 123.58267 53.85380 -1.23779 -55.68947 -78.07823 -112.98683 -243.56316 -1163.47960 -2837.51655 -3920.66124 -3967.70337 -3961.40620 -3926.38031 -3742.72100 -2684.05533 -893.57408 -661.58626 -884.71395 -1191.49447 -2437.88245 -2761.60888 -3032.53777 -3197.49941 -3203.89679 -3226.40270 -3247.09264 -3251.80083 -3259.39197 -3270.44463 -3276.31071 -3284.81507 -3289.48863 -3292.74128 -3301.17651 -3305.56170 -3314.33756 -3318.81066 -3318.91066
-5181.08558 -5180.98558 -5160.96442 -5148.56894 -5149.26847 -5153.76487 -5155.79057 -5090.64059 -5072.33991 -5058.85062 -4939.36810 -4775.84208 -4752.31664 -4635.10761 -4663.68993 -4624.11908 -4358.18089 -4087.43675 -3233.39939 -2349.22559 -1855.35647 -1855.00015 -1745.44873 -1495.72303 -903.18680 -646.57187 -458.28326 -392.51086 -312.59735 -232.87993 -172.67599 -143.89003 -76.11196 -36.22217 -4.87098 52.91670 155.01233 228.61720 248.76987 269.88682 262.06503 279.14900 266.20831 233.79839 223.04846 223.14918 200.63869 190.19649 180.46497 181.09774 178.50682 183.60827 188.95893 203.87275 214.43601 241.29020 277.19901 308.67344 356.35285 407.06361 401.71079 374.84833 388.53994 376.90794 347.53249 340.27795 330.93818 332.14209 330.78903 337.49347 350.17043 351.69029 358.62084 372.25152 392.48191 412.11323 430.81083 449.49784 476.67445 518.69696 556.79688 586.08387 621.97130 639.75619 672.66866 715.44940 741.45693 754.09457 757.73335 746.88491 722.42917 702.68343 670.91893 633.75561 572.41784 549.46709 510.85443 471.54560 431.08152 374.22105 316.62188 287.56351 266.26407 222.64833 176.32478 119.24761 58.74714 13.80293 -55.12017 -133.77920 -261.66923 -334.36119 -1119.15968 -3174.71760 -3904.21791 -3914.44562 -3929.92231 -3873.00481 -3231.14433 -1755.53922 -789.41504 -579.42400 -1060.76847 -1646.89169 -2366.62655 -2833.84579 -3019.14328 -3190.87519 -3226.95990 -3236.49437 -3243.29944 -3251.52389 -3260.00838 -3267.02918 -3273.06517 -3273.15281 -3282.55490 -3291.29800 -3298.54781 -3304.08007 -3310.44033 -3315.80637 -3315.90637
-5324.64775 -5324.54775 -5189.03596 -5132.26401 -5101.76279 -5040.58117 -4981.51452 -4927.43565 -4879.93193 -4887.06679 -4881.48886 -4874.41654 -4849.72549 -4871.14958 -4905.59870 -4900.37113 -4728.04446 -4432.13631 -3832.78109 -2649.78589 -1441.34362 -1460.02230 -1460.11237 -1381.78332 -858.80793 -570.19075 -461.49003 -387.11923 -322.02689 -242.63520 -182.89238 -170.82023 -51.47469 -19.34065 46.03115 104.99261 190.15662 279.61907 254.09263 212.95909 193.88162 249.42111 220.08457 202.70163 188.82266 180.47825 168.85887 174.69321 163.03393 168.28503 167.26331 174.60247 178.87551 195.98280 213.79870 230.11397 271.39745 321.25268 349.12108 417.72027 437.05385 443.51598 434.31539 395.47513 375.38925 366.43514 352.08893 342.95984 348.38558 353.30289 357.64630 359.30520 367.76201 382.55868 396.00393 412.82281 435.89344 455.47757 484.35590 513.67815 543.63814 589.12549 617.09476 648.71174 670.55426 701.32538 737.46599 738.64625 740.65984 731.26731 712.50389 690.63522 663.50244 628.56799 594.08712 579.45550 538.98509 466.21548 418.26644 371.69033 345.36041 297.35150 225.56072 163.96428 144.74719 73.61864 28.48051 7.31121 -28.43166 -185.22735 -252.73509 -632.76294 -1737.50077 -3022.36591 -3993.31578 -3904.43278 -3871.34784 -3794.93234 -2909.98969 -1209.97853 -516.41227 -643.33760 -1103.60144 -1809.67377 -2415.71473 -2868.29243 -3026.43189 -3179.34352 -3229.19778 -3234.48414 -3242.17253 -3249.07830 -3256.41695 -3265.80230 -3267.45297 -3265.88490 -3279.23654 -3287.74244 -3294.23457 -3299.99330 -3307.28826 -3313.70904 -3313.80904
-5030.91314 -5030.81314 -5015.32524 -4941.13378 -4939.27337 -4867.67940 -4847.53422 -4853.49275 -4853.74744 -4896.02950 -4933.15099 -4944.31047 -4941.41595 -4954.92339 -4950.26385 -4936.82408 -4857.98969 -4593.55468 -4176.45938 -2849.51556 -1798.56464 -1300.38476 -1231.51694 -979.60601 -661.51794 -519.53163 -441.57526 -374.28460 -332.83276 -236.77320 -188.28593 -158.61316 -78.93151 -34.18408 37.31998 139.77303 242.09794 245.95979 149.09851 154.78862 139.56688 188.79455 182.59629 158.33032 145.92209 147.03114 146.34349 143.74479 144.07245 137.78525 157.49823 171.16405 173.88833 189.28516 209.63965 226.45636 252.55746 289.88022 336.84922 379.57849 439.56656 483.18287 442.37227 397.74025 391.12988 386.87969 375.30219 364.13572 360.80168 359.87482 361.06327 362.06843 368.02647 384.64888 395.93171 417.18969 434.44593 458.55901 488.81216 508.49261 540.27395 579.58672 624.95850 647.80705 677.85933 704.92060 717.39962 731.15274 729.35863 703.17703 677.46776 677.95054 640.75728 612.16909 552.60046 545.68446 527.98727 461.67395 416.01588 358.37770 321.34823 264.74883 211.44117 147.66147 123.12778 62.55224 40.07614 19.51770 -25.39211 -189.77887 -281.81102 -929.02082 -1350.27958 -2918.82649 -4085.59498 -4165.61398 -3936.07350 -3510.25325 -2326.48271 -479.34577 -332.19602 -612.22526 -1224.51623 -2038.69636 -2482.01980 -2860.50798 -3020.29434 -3147.47522 -3219.41358 -3234.80938 -3239.10655 -3246.66555 -3256.89447 -3258.50502 -3257.56363 -3264.77754 -3273.81191 -3283.51884 -3292.34701 -3300.07775 -3306.68992 -3312.44670 -3312.54670
-4839.37624 -4839.27624 -4878.76974 -4881.70064 -4874.40125 -4892.32117 -4880.00378 -4907.91009 -4940.50701 -4967.09722 -4966.13250 -4975.03336 -4971.91684 -4968.91479 -4965.07997 -4964.10423 -4944.22676 -4800.69769 -4499.84776 -3390.44738 -2054.77008 -1124.31154 -1036.06882 -847.14380 -620.21323 -508.81117 -431.37245 -383.47817 -339.71388 -287.80307 -214.69837 -180.52990 -84.59599 -33.03347 65.29635 132.64983 109.61175 148.34106 121.47240 99.81343 92.77292 137.88159 132.71519 124.87394 121.29320 120.89726 116.63926 125.55928 126.64916 131.22900 143.08671 161.33410 167.44893 173.74094 190.15213 216.98090 246.14377 259.14386 296.29270 356.23799 410.47948 469.94727 462.32310 427.34328 417.84083 405.91264 396.31438 386.44513 376.31289 368.72913 368.47826 362.70937 367.57934 381.40174 395.42426 413.53566 440.74545 451.51797 482.02426 500.72545 548.86375 581.89703 610.15068 643.96936 664.83273 695.14757 708.02170 703.14671 688.64372 671.05427 657.98638 636.63276 617.83203 582.53556 563.98336 528.42969 489.86170 430.27701 405.67728 350.79860 312.12855 263.17751 226.11593 170.28953 141.84528 97.42920 59.60092 -5.96792 -49.76170 -157.19007 -276.65815 -507.02065 -1583.66781 -2631.03775 -3912.05513 -4420.36693 -4232.49916 -3259.43828 -1643.89726 -184.54721 -151.42607 -463.18619 -900.77413 -1836.69273 -2227.38046 -2642.31333 -3040.31122 -3159.97898 -3218.32514 -3228.65958 -3230.51139 -3233.45376 -3244.03318 -3251.79896 -3255.90048 -3263.33986 -3271.35143 -3280.83817 -3292.79605 -3298.00383 -3305.28029 -3311.99419 -3312.09419
-4934.38605 -4934.28605 -4933.59513 -4930.38190 -4950.13482 -4965.07382 -4966.08796 -4984.31223 -4984.18397 -4984.65522 -4984.30123 -4986.14796 -4986.37951 -4980.95399 -4983.89295 -4981.42423 -4971.14390 -4913.13160 -4636.50160 -3798.01229 -2803.55859 -1488.30963 -1064.45629 -901.61659 -621.56132 -513.45202 -444.21657 -395.20869 -373.54611 -292.42243 -245.10753 -200.16454 -146.49097 -94.95051 30.70495 72.62493 28.01776 45.69646 62.91018 52.21795 75.73681 70.29246 82.18930 95.18085 85.15688 81.05875 88.92859 104.98074 109.44258 118.88611 129.51425 143.34703 149.47332 158.99196 180.76402 195.96692 234.49960 266.56035 308.22957 329.69753 439.88440 484.78361 495.59564 471.20286 464.92473 434.22224 416.00787 403.25637 384.04425 375.83856 372.50061 365.85982 363.00452 374.44413 385.35270 404.53169 443.12808 462.10874 493.64812 501.75815 549.02084 574.25271 602.56437 635.57099 656.36570 680.39790 693.99995 690.79075 675.75115 641.82291 629.42940 615.67620 602.79145 574.60403 543.84208 501.85680 451.85148 425.01021 386.94919 351.47050 289.12204 246.73986 218.07617 172.74769 111.61604 57.82048 9.21670 -44.35269 -100.36583 -149.98252 -279.02874 -1077.07144 -1943.21404 -3548.06360 -4322.32385 -4461.75295 -4244.46817 -2750.86483 -857.56723 -286.23695 -150.65249 -502.01766 -1018.14258 -1817.94650 -2276.84959 -2720.95102 -3052.38554 -3193.23815 -3203.32808 -3213.06180 -3223.23552 -3228.79154 -3238.78869 -3247.70481 -3254.03217 -3262.39722 -3272.65039 -3276.76108 -3291.79672 -3298.55158 -3304.39242 -3312.17699 -3312.27699
-4992.02423 -4991.92423 -4990.43541 -4989.35908 -4993.73688 -4998.95071 -4993.65491 -4990.83061 -4998.81806 -4998.50722 -4995.75071 -4995.67321 -4998.51111 -4996.85462 -4993.09687 -4990.98194 -4969.16919 -4918.87689 -4594.93171 -4229.07474 -2755.11280 -1510.66479 -1050.06169 -882.42493 -594.63764 -565.91505 -474.98355 -421.26129 -388.04579 -335.11287 -270.45225 -221.04457 -165.64536 -141.27642 -90.77994 -62.11494 -46.94363 -8.12710 10.07608 12.69240 30.34340 17.52705 21.59057 46.28658 43.67755 53.09864 68.96456 79.50979 92.24876 108.99501 111.28567 125.65064 128.97676 153.83260 167.47712 194.33640 228.79834 243.82356 288.61117 327.17176 390.49404 429.02412 484.86997 513.32316 484.04349 448.48832 430.67896 419.30878 392.39222 391.75461 381.80453 374.18377 367.91077 367.76688 375.03070 395.97524 442.43356 458.73583 491.11969 511.35909 542.06526 564.62731 598.49316 626.67743 655.59096 671.07340 678.32079 672.79658 647.30713 626.80493 589.67371 582.24435 559.41098 546.20753 521.30487 476.99895 438.30171 394.27551 354.09344 332.57652 274.70588 239.27080 201.20101 154.03184 129.27846 81.73487 23.93936 -30.59448 -85.08108 -185.15647 -309.30179 -1188.34540 -2310.58565 -3569.06883 -4324.51750 -4459.35614 -3831.40732 -2085.68092 -959.33966 -134.04516 -184.62915 -524.77785 -1080.48315 -1707.54810 -2333.88885 -2815.11923 -3065.42891 -3192.19560 -3201.57276 -3207.97670 -3219.60027 -3231.02738 -3237.55216 -3247.67485 -3255.30228 -3263.03223 -3272.23125 -3278.03889 -3288.10564 -3297.36336 -3304.10057 -3312.76959 -3312.86959
-5001.97071 -5001.87071 -5003.34508 -5006.99846 -5006.67364 -5007.31367 -5004.91030 -5004.54915 -5009.65817 -5009.44446 -5009.54310 -5007.73429 -5007.90549 -5007.06386 -5001.78953 -4999.54417 -4977.25199 -4799.58498 -4530.47265 -3854.10284 -2563.22880 -1335.92327 -1087.99956 -904.52392 -748.32527 -672.08941 -486.65266 -452.29332 -402.24534 -374.10365 -339.50862 -260.72845 -198.67469 -161.16097 -118.69546 -101.96753 -82.04218 -58.74602 -36.06588 -18.24702 -3.70643 -20.49629 2.41293 24.40432 28.45614 30.54849 51.13115 66.02816 72.46284 83.37954 101.86926 112.84971 124.57965 141.18108 162.68877 192.54180 217.98728 244.71819 283.11215 321.53781 376.75537 406.13346 461.56399 542.65251 505.11938 482.51478 451.03557 451.52385 421.21820 411.39989 390.96599 376.68550 371.22496 365.00119 373.13708 389.98319 425.98949 447.60536 473.51990 506.04485 537.01009 556.84089 595.39196 617.30514 632.19683 643.54943 649.40698 642.86399 639.12014 603.12094 566.83423 551.71364 528.22036 527.12220 488.54140 458.13571 412.74127 356.86238 337.81572 323.09031 267.22756 226.54589 175.46670 129.80438 93.98024 51.41022 5.86328 -44.40557 -70.19376 -174.32689 -296.88734 -793.07443 -2796.62807 -4299.24452 -4463.29071 -4458.42161 -3701.91011 -2519.44552 -579.10602 -125.76743 -144.56330 -377.83268 -1235.29582 -1799.56497 -2439.92678 -2780.72513 -3122.46088 -3196.14524 -3201.79038 -3211.40773 -3221.80329 -3230.99832 -3236.37347 -3251.51543 -3255.47276 -3260.77326 -3273.15321 -3279.21959 -3288.55016 -3298.70879 -3304.76737 -3313.56937 -3313.66937
-5016.39659 -5016.29659 -5017.87640 -5017.87939 -5021.09143 -5019.16288 -5018.17517 -5020.21873 -5015.94525 -5015.24027 -5017.25318 -5020.48743 -5017.27280 -5014.69931 -5010.27824 -5000.22652 -4972.54050 -4678.07087 -4280.88776 -3467.12729 -1954.88540 -1354.53079 -1075.44307 -996.09336 -897.31379 -689.66820 -547.01681 -511.79899 -427.75787 -410.89487 -337.35183 -294.38706 -265.73527 -190.30048 -144.49653 -114.68527 -108.13169 -83.14668 -68.48418 -42.14648 -37.77674 -34.74976 -35.56723 -10.88874 -1.60104 19.61440 32.17120 46.82035 49.10838 72.61775 82.31539 94.18680 119.46100 141.20503 166.94925 184.53624 201.81952 250.45705 258.92548 319.36643 348.42190 411.19212 463.35641 534.80788 536.73131 541.53009 529.27351 493.63461 460.39068 435.28170 403.32197 379.72688 373.02883 369.82367 384.96115 401.73934 416.44405 438.18925 462.16459 496.89568 524.50922 544.09010 575.15046 599.30513 620.26635 631.11629 632.91286 635.23085 615.93195 577.81970 545.91948 511.13598 473.79161 477.71172 451.11782 423.12059 392.20174 353.29137 332.74893 294.53496 273.40674 226.89763 153.03953 113.28108 66.14246 41.28702 -5.46937 -52.71448 -84.25719 -157.11878 -214.19710 -684.09877 -2086.38631 -4047.70823 -4344.70244 -4427.22896 -4041.81264 -2885.15387 -540.22482 -128.86254 -139.64021 -536.50067 -1213.05688 -1694.03076 -2576.91814 -2893.70222 -3156.79960 -3194.85445 -3206.40491 -3213.76281 -3224.57136 -3230.13595 -3239.81636 -3249.13743 -3254.88625 -3264.98290 -3270.80905 -3279.32834 -3290.33688 -3299.55761 -3305.47079 -3314.37439 -3314.47439
-5029.28366 -5029.18366 -5029.21129 -5029.99893 -5031.19839 -5032.20459 -5033.14324 -5029.42901 -5034.02424 -5031.36666 -5026.73793 -5026.92169 -5023.04643 -5022.63599 -5020.35885 -4998.15277 -4917.20470 -4658.44581 -3726.42159 -2837.24611 -1866.51363 -1257.04626 -1116.18464 -1045.37059 -990.59838 -837.50147 -701.19000 -551.54955 -469.23462 -449.69519 -382.84335 -366.51356 -320.41387 -267.17944 -174.65743 -151.81636 -124.62972 -105.92052 -88.10495 -80.92903 -73.58763 -54.22129 -41.24990 -36.36571 -31.48716 -5.73669 1.44480 13.00473 35.12370 50.48389 70.73407 83.02434 122.64391 127.86113 156.89848 177.71005 192.99122 240.73589 265.33273 300.40969 327.34859 387.40481 439.60668 471.05615 516.45747 510.56560 509.52522 518.40728 478.44499 453.13963 407.33976 377.52411 366.74411 370.53775 374.59189 391.33700 411.69747 432.95451 455.91032 481.09519 514.61504 543.69117 561.71751 585.65671 610.34703 616.56480 621.38152 618.76852 591.86371 557.13129 529.97153 485.95236 454.05901 451.72932 406.04169 368.90335 352.60127 310.21047 300.20661 259.35501 214.30411 190.33459 153.75864 102.05851 52.98882 12.35336 -20.85991 -50.13913 -105.19971 -179.97335 -289.57478 -811.81664 -1557.79724 -2854.18313 -4522.04319 -4696.57099 -4418.96765 -2846.08668 -1378.40423 -362.18579 -337.33719 -912.14018 -1383.98015 -2071.43047 -2778.23049 -3126.12563 -3165.08897 -3194.72335 -3209.66648 -3218.05036 -3225.24388 -3235.54910 -3242.20931 -3248.73662 -3257.41864 -3265.73237 -3271.46353 -3280.57490 -3290.02259 -3298.81004 -3305.81988 -3315.38465 -3315.48465
-5039.27549 -5039.17549 -5038.74494 -5040.48551 -5039.54823 -5039.76807 -5039.14879 -5038.44638 -5038.06002 -5036.68781 -5036.15721 -5033.35604 -5031.80731 -5029.93921 -5026.34411 -5003.94882 -4889.73776 -4460.61027 -3489.83349 -2698.01532 -1728.55241 -1293.89482 -1181.24174 -1072.32597 -1002.82449 -851.98867 -778.59698 -716.54552 -575.31530 -474.42342 -430.60057 -387.86560 -358.84668 -300.22333 -234.45004 -168.33181 -160.86738 -145.43506 -115.76179 -116.10143 -108.93976 -93.15975 -63.58950 -44.43979 -44.38225 -18.79351 -9.06548 7.40182 28.08572 34.36534 55.63953 67.85122 100.54975 128.76659 151.73227 166.46558 199.30140 224.83333 250.40904 291.70316 323.36392 353.36154 408.80205 415.50723 445.24009 453.91474 438.78203 427.03735 443.18880 412.00152 371.43940 355.08032 357.18595 362.15013 367.79594 376.64366 400.38421 422.72101 447.03351 466.60777 485.27841 538.31928 553.96727 573.10037 588.83996 594.41349 583.49408 570.63269 553.81890 544.59024 514.85881 484.79877 450.81421 424.30051 401.70580 364.81248 313.35726 254.84723 272.55856 233.10375 187.00050 132.86145 132.00249 89.89689 23.51982 -3.92879 -43.41154 -85.20858 -150.40894 -184.01933 -493.00554 -917.30655 -1674.04514 -3585.58369 -4805.79727 -4901.43210 -4823.23157 -4058.69589 -1908.50085 -1226.55621 -1294.11101 -1418.59336 -2142.63675 -2234.53613 -2797.40358 -3145.20562 -3167.34025 -3184.79128 -3214.57041 -3224.56922 -3231.84282 -3235.62419 -3247.65402 -3253.42218 -3259.39484 -3265.17036 -3272.88920 -3283.54035 -3292.33406 -3299.85615 -3306.67594 -3316.37164 -3316.47164
-5047.76959 -5047.66959 -5047.66820 -5047.10262 -5048.14392 -5046.95453 -5048.65795 -5047.16518 -5046.37701 -5045.79838 -5042.36215 -5042.99830 -5039.09641 -5037.50697 -5035.83479 -5010.35309 -4861.67736 -4546.91466 -3457.70033 -2912.74254 -1834.75779 -1416.56392 -1193.26156 -1090.62649 -1007.94823 -963.43418 -881.82625 -813.89525 -728.20953 -601.72555 -518.31304 -460.26584 -353.86318 -312.35042 -262.43152 -232.35586 -194.50032 -181.65460 -155.52208 -134.63156 -119.90025 -120.29493 -107.00633 -74.94823 -58.32138 -34.13971 -20.35049 -4.86892 10.05837 36.49061 52.55462 69.05520 91.04718 118.11551 141.25984 162.62391 187.97268 220.34780 234.17973 267.94642 313.78896 330.82691 344.85268 385.55706 388.18437 385.71783 398.69723 407.35349 394.57897 372.63263 350.08150 344.48571 341.64589 343.11293 355.70663 370.27442 383.60869 408.93003 442.59370 469.08383 482.40919 511.98512 545.05026 558.09524 574.16126 577.96913 562.37474 539.94590 508.78098 497.73510 493.17517 452.75878 418.57379 388.59961 373.51101 367.96495 304.31486 251.88927 242.76170 207.07666 186.89843 124.96149 113.55524 79.23453 16.65602 -13.96879 -54.62376 -120.08275 -162.09869 -322.33894 -654.48635 -1445.42795 -2551.51918 -4400.73956 -4888.55744 -4926.84365 -4878.75739 -4465.59660 -3921.36801 -2594.59650 -2618.78259 -2644.27912 -2447.66692 -2879.27355 -3005.21014 -3164.88919 -3180.44184 -3189.81095 -3214.72026 -3224.86471 -3237.24526 -3244.68518 -3250.94690 -3254.84163 -3262.57007 -3267.67452 -3275.45258 -3285.67308 -3292.78875 -3298.76202 -3307.59404 -3317.35997 -3317.45997
-5055.76037 -5055.66037 -5056.21017 -5054.68048 -5057.44495 -5055.77498 -5055.10047 -5054.34598 -5051.79521 -5051.74773 -5051.37320 -5050.04308 -5047.43672 -5045.64714 -5043.16926 -5029.25027 -4937.76959 -4820.14751 -4294.11799 -3364.69303 -2160.29770 -1561.29261 -1354.76581 -1152.06418 -1097.95106 -1024.50854 -960.72136 -928.60695 -829.52535 -704.28784 -591.52460 -488.40173 -400.44335 -338.12683 -320.99393 -279.57612 -236.66860 -220.00474 -199.75232 -165.62623 -149.94479 -133.92577 -110.12650 -91.57866 -71.98124 -54.67909 -33.36120 -17.84824 0.10934 19.28456 43.91359 58.20929 83.67769 111.02897 140.17088 159.74289 193.65405 221.18747 236.75815 276.65725 304.06673 311.75994 322.99846 348.52062 346.43447 342.88385 352.39454 352.31512 362.01082 340.00798 324.80922 324.58008 325.91771 331.22854 346.42585 357.43653 371.98087 399.31461 428.42126 449.70603 479.29748 506.77544 523.99679 537.10087 553.61172 558.67699 556.88659 515.54629 488.74994 441.70897 448.34585 436.16320 381.96518 363.19339 343.83463 330.17344 307.45193 260.95537 211.73671 166.54223 139.83276 129.20668 91.61640 67.45416 10.31413 -32.68493 -98.86816 -173.31515 -256.00813 -459.97544 -1019.78051 -1505.69193 -3353.88965 -4403.35264 -4921.57090 -4922.83733 -4899.83899 -4879.52155 -4650.62992 -4045.59713 -3265.50973 -3167.55576 -2942.11345 -3094.33888 -3160.94728 -3175.19752 -3192.03156 -3207.82701 -3217.45377 -3226.60931 -3237.51568 -3248.38968 -3250.91367 -3258.38961 -3265.47901 -3268.29257 -3275.25039 -3284.52303 -3293.38749 -3299.93520 -3309.08284 -3318.17526 -3318.27526
-5063.60861 -5063.50861 -5064.17764 -5063.65199 -5063.22661 -5062.06192 -5061.60483 -5060.68403 -5063.98487 -5058.10313 -5056.78010 -5056.14586 -5054.88158 -5053.52556 -5049.34505 -5047.09349 -5006.41283 -4911.19835 -4608.83867 -4221.47770 -3222.16520 -2659.62825 -2057.20083 -1268.20772 -1173.66905 -1062.45597 -965.86611 -934.59892 -923.11293 -855.76035 -755.81962 -587.04580 -435.92047 -384.24507 -365.97269 -358.50110 -299.69130 -272.20516 -230.64482 -193.36480 -175.96707 -161.03790 -137.32969 -113.45725 -86.65039 -72.15348 -50.76049 -19.40744 -6.96618 23.49380 35.23150 49.72074 86.37254 100.54717 133.55376 164.02271 182.97011 222.74860 255.28862 278.70050 293.47326 299.36945 302.75596 310.56062 317.20634 320.96630 314.80382 313.09763 318.01261 321.30822 309.74861 309.77247 313.06220 318.15223 328.24100 341.45415 362.39620 382.62734 417.00930 435.61024 457.96430 483.99965 510.82596 528.79108 536.18349 537.13334 536.70191 526.42295 476.45891 403.02931 412.55037 425.76903 367.89693 343.86060 295.42300 283.74423 250.45177 236.00827 195.36885 147.25858 125.77303 109.47942 63.44481 37.70242 -15.15591 -49.14878 -100.29793 -183.84232 -428.01649 -623.39426 -1126.17723 -1626.40868 -3593.64086 -4577.02647 -4915.83099 -4899.33895 -4907.35107 -4899.70257 -4838.13162 -4317.99779 -3599.40214 -3203.39295 -3057.91085 -3150.37707 -3172.42503 -3187.50184 -3195.56561 -3214.32077 -3224.39247 -3229.90485 -3238.59101 -3246.48735 -3249.44257 -3257.01527 -3265.04544 -3268.58180 -3274.91905 -3284.83847 -3294.20665 -3299.93154 -3309.50844 -3319.16063 -3319.26063
-5071.31676 -5071.21676 -5071.40001 -5071.68810 -5072.14675 -5070.71740 -5070.36462 -5068.68942 -5068.50625 -5066.81304 -5064.62188 -5064.96949 -5059.35865 -5059.04731 -5057.81330 -5053.68763 -5037.31467 -5009.69662 -4956.36209 -4739.50377 -4071.01199 -3184.93593 -2364.23230 -1689.33771 -1332.86944 -1072.51654 -1029.13991 -1006.32808 -951.88565 -928.71467 -864.38356 -694.20348 -657.17081 -542.34866 -439.03147 -393.69950 -369.86463 -303.07272 -257.22143 -237.44977 -216.17054 -184.74574 -163.99400 -134.40454 -103.92493 -86.38431 -71.74153 -23.05674 -13.48758 10.27218 35.76460 47.35398 82.19289 94.75074 127.79999 171.03183 200.13038 253.93874 299.17625 303.29080 286.80906 287.67372 289.76949 292.64899 290.09411 292.02812 293.79748 302.43051 293.32514 290.49252 293.21828 299.31980 300.61277 310.16594 317.59378 334.59877 357.03723 377.79447 396.07130 423.53985 451.98480 474.10607 485.20468 510.95264 520.66872 522.50607 518.64642 491.74859 454.54939 423.23469 336.41045 356.31950 319.03294 317.80399 280.01141 250.60022 241.18776 179.43177 165.60864 138.92472 113.15372 90.34779 62.40586 5.83246 -45.27167 -82.23302 -150.53669 -226.17511 -518.40140 -806.36717 -1291.95864 -2254.36561 -4038.56432 -4386.69225 -4870.60647 -4904.61535 -4888.05309 -4888.67811 -4876.93607 -4737.34003 -3939.84965 -3158.84069 -3168.38141 -3182.14436 -3169.79902 -3190.21784 -3206.80878 -3219.25932 -3228.75605 -3233.72146 -3240.09717 -3249.01911 -3252.36487 -3257.45746 -3266.51247 -3270.92603 -3278.11607 -3285.01265 -3292.60129 -3300.26557 -3307.83905 -3320.17877 -3320.27877
-5078.89018 -5078.79018 -5078.91322 -5078.51969 -5077.64531 -5076.66934 -5077.30621 -5076.68299 -5074.81981 -5074.44126 -5073.63610 -5070.24806 -5069.30615 -5067.79699 -5065.68407 -5060.94228 -5053.32206 -5042.46944 -4988.52809 -4772.89681 -4572.60819 -3798.79672 -2759.60696 -1904.43102 -1294.84833 -1143.66059 -1089.57783 -1090.86801 -1085.05086 -1005.78515 -953.57076 -905.22541 -881.11106 -692.27062 -525.85489 -454.60267 -425.14812 -341.02587 -326.30107 -260.05432 -235.46500 -221.64902 -201.04371 -160.81340 -118.74036 -100.18510 -83.00388 -33.03660 -15.56425 13.92042 34.28567 43.17943 81.19039 92.97956 128.02232 195.78288 244.64312 300.09492 318.53561 329.48166 297.07973 281.32079 277.29160 277.08634 272.65245 272.84509 281.21653 288.77450 284.85444 281.65277 276.80586 281.26682 281.47440 296.78540 300.77423 318.68134 348.89697 362.66054 374.34813 400.88632 430.07791 444.49339 474.81680 477.09219 499.37567 500.25205 489.92783 455.21187 422.98262 418.80249 418.61676 343.41006 265.27400 265.57910 251.76301 214.55470 173.09855 168.26086 110.63966 109.84714 92.54067 59.73455 25.82808 -40.91927 -68.30952 -101.80772 -158.67811 -331.58104 -753.54272 -926.39300 -1285.79964 -2603.12485 -4092.51146 -4695.66418 -4845.98570 -4866.91767 -4895.12716 -4895.68834 -4877.05705 -4673.99996 -3796.38126 -3318.06145 -3189.27436 -3185.82872 -3176.39755 -3192.60281 -3211.17541 -3223.31376 -3229.82860 -3237.40295 -3245.46262 -3250.67517 -3254.78140 -3260.64949 -3267.44943 -3273.99439 -3278.65043 -3286.42076 -3290.25159 -3300.31253 -3309.16060 -3321.01967 -3321.11967
-5086.31091 -5086.21091 -5085.75628 -5086.99193 -5087.27279 -5085.58998 -5084.10493 -5083.89840 -5082.71052 -5081.25409 -5078.59923 -5078.85390 -5076.67104 -5073.03784 -5071.04755 -5069.04423 -5067.38700 -5062.81287 -5050.81010 -4973.45417 -4835.88154 -4061.24352 -2940.49079 -2034.75099 -1434.03015 -1283.94643 -1232.31367 -1199.30274 -1180.56512 -1117.27375 -1095.82233 -1119.14224 -996.81271 -885.93705 -714.12642 -632.69825 -498.39944 -458.86759 -361.39509 -293.87425 -273.32290 -255.75905 -213.51750 -180.27647 -140.08097 -116.53586 -96.60238 -61.21282 -19.92911 -1.14154 30.06853 49.91229 91.34518 115.72136 161.66984 219.46230 230.86412 327.89302 361.95043 338.84068 290.19345 264.17285 249.94588 252.32998 259.50439 252.36917 253.58419 264.86488 275.04426 261.84222 262.51555 265.37592 275.14588 276.96588 292.86467 306.23618 327.76522 344.11395 363.63788 376.09468 404.05902 418.63875 452.01087 468.07099 488.29821 482.46359 456.24730 443.67711 427.64696 536.69690 627.62762 481.47354 260.24398 247.49422 221.30389 193.26804 165.12980 125.53520 72.61281 55.85483 40.67355 31.71892 -28.58784 -62.92068 -101.04697 -151.40994 -234.88393 -413.21581 -684.51951 -1180.17929 -1661.19925 -2838.83079 -3979.42487 -4744.52240 -4837.17381 -4883.08956 -4897.24334 -4910.14101 -4867.55378 -4739.75745 -3837.48995 -3289.65933 -3203.59544 -3195.62314 -3185.51142 -3193.20354 -3208.73858 -3221.42264 -3235.59473 -3239.84646 -3246.09228 -3254.46469 -3258.87981 -3262.78483 -3267.22261 -3275.31168 -3279.63368 -3286.30508 -3292.44701 -3300.73024 -3309.01777 -3322.01278 -3322.11278
-5093.69598 -5093.59598 -5093.83011 -5091.97062 -5093.77338 -5092.76658 -5092.97163 -5091.05363 -5089.78250 -5088.79627 -5086.46532 -5084.94120 -5082.10538 -5081.79756 -5077.23355 -5074.19764 -5070.05356 -5067.84328 -5061.57242 -5026.77414 -4706.12208 -4208.32878 -3055.00441 -2114.44888 -1454.23192 -1325.41438 -1278.37490 -1253.10209 -1246.03655 -1295.58599 -1233.98255 -1328.53826 -1202.19822 -1007.07581 -887.85748 -773.45155 -636.70847 -602.43303 -392.16480 -365.79545 -331.14641 -305.19318 -244.58165 -215.19445 -155.87677 -126.49319 -103.06570 -69.68382 -48.75001 -10.09380 24.06289 34.64056 80.60757 128.84795 191.62665 251.73688 286.46832 335.02371 345.18100 305.32779 268.26792 241.12869 237.21185 234.80930 236.18117 241.47226 239.69333 238.03754 236.90895 241.65084 251.97417 256.34875 259.47855 267.27214 275.05727 290.14003 300.58498 328.30174 344.58595 357.56507 387.99455 398.39093 418.62250 456.38725 469.19349 467.39422 435.10030 423.80983 393.96131 502.55076 561.14148 351.98911 256.36694 210.79430 194.95473 162.04678 145.45173 111.53907 96.34532 36.96032 -15.09059 -33.80100 -59.98710 -88.26415 -137.77016 -242.12909 -343.27081 -546.91936 -834.00967 -1151.28389 -1724.96018 -2678.58362 -3934.16935 -4427.98869 -4782.48443 -4852.38792 -4883.09992 -4904.92971 -4773.27731 -4472.77560 -3822.81426 -3315.09307 -3235.75891 -3191.91257 -3179.70966 -3187.70901 -3200.58178 -3222.55838 -3243.28728 -3248.11072 -3251.20011 -3256.59451 -3258.37053 -3265.98990 -3270.78893 -3273.83359 -3282.54293 -3286.40871 -3292.30104 -3302.20105 -3311.21520 -3322.75932 -3322.85932
-5100.99713 -5100.89713 -5100.69965 -5099.85101 -5098.91932 -5100.54509 -5098.11268 -5097.17535 -5096.59062 -5093.92201 -5092.45602 -5092.93055 -5090.36126 -5086.45618 -5083.52405 -5082.69033 -5079.74970 -5076.37895 -5064.56538 -5022.61081 -4513.39295 -4124.15203 -2971.54897 -2069.38394 -1645.18864 -1442.72791 -1581.28480 -1495.42581 -1423.40120 -1602.26631 -1460.78682 -1542.76103 -1381.31055 -1161.56017 -997.59301 -936.27383 -806.59633 -726.67624 -630.22240 -512.73784 -449.49195 -401.40042 -287.72290 -245.43778 -195.13429 -161.35367 -138.15545 -91.15459 -70.31512 -31.11436 18.08013 57.09029 94.06329 122.12779 178.63161 249.48821 295.13441 323.44176 287.81235 258.53344 230.60378 208.17119 221.80026 224.10490 212.22173 208.82427 218.92957 223.02787 222.26267 229.63953 229.80790 235.56837 240.10584 239.96129 254.55309 273.80601 290.90858 307.03153 319.97248 333.47727 371.27229 393.22192 408.12855 429.71483 438.22713 433.08491 416.83076 394.71762 374.75955 329.83272 375.63318 241.09062 233.55339 163.18861 142.15888 112.85802 114.39234 76.60717 56.86117 26.72825 -38.18103 -65.77435 -88.46819 -98.75084 -193.34475 -306.35573 -469.93911 -736.84804 -1086.52236 -1393.73442 -2210.44968 -3000.97674 -3988.89440 -4411.29431 -4646.35213 -4810.91728 -4857.85914 -4884.56645 -4641.86689 -4240.17150 -3844.88201 -3419.79556 -3219.06706 -3166.77273 -3150.64320 -3181.80569 -3202.81823 -3229.93098 -3241.65520 -3250.87985 -3254.46730 -3256.69590 -3262.25909 -3266.48563 -3272.14731 -3275.46037 -3280.55900 -3286.44409 -3291.06551 -3299.67237 -3311.69920 -3323.91081 -3324.01081
-5108.18487 -5108.08487 -5108.48613 -5107.60937 -5107.46270 -5106.72549 -5106.24532 -5104.30994 -5104.66548 -5101.09303 -5099.61241 -5100.09551 -5095.96045 -5093.32113 -5091.04497 -5088.75943 -5085.91093 -5082.37141 -5062.36515 -4938.80288 -4640.72484 -3695.40243 -2788.50535 -2043.02100 -1867.77578 -2047.77716 -1944.24336 -1913.74047 -2164.75124 -2080.55071 -2296.07324 -2381.91986 -2079.28626 -1244.15208 -1087.98360 -956.75321 -849.62793 -804.58279 -752.83042 -724.18215 -633.80594 -433.96641 -321.03139 -249.46152 -224.81229 -177.54029 -139.65847 -100.94075 -76.80600 -42.13889 -3.44606 45.32014 121.50669 183.05515 238.43195 244.36496 237.50384 244.68830 236.77749 223.99328 196.40993 192.51163 185.54454 181.78334 191.42618 192.07812 201.78832 207.63663 208.56525 215.32626 211.24038 214.53339 222.22849 227.01227 235.42137 256.96497 257.54420 281.62068 292.87339 306.27878 332.22113 351.31593 393.40449 415.47685 415.90449 416.65660 409.66383 394.81121 381.64407 485.16789 457.98617 203.21135 197.81629 157.53337 123.54140 93.39777 72.91356 39.49822 -0.29226 -31.29948 -50.21171 -82.83169 -132.96760 -154.80517 -345.55319 -407.23723 -711.24514 -859.50926 -1116.56311 -1472.68494 -2566.15106 -3646.33926 -4240.82774 -4631.32581 -4765.28880 -4805.28843 -4849.07641 -4870.59805 -4583.71290 -4170.79789 -3732.33626 -3320.83905 -3222.41105 -3149.90581 -3157.00941 -3176.10425 -3210.04652 -3232.08914 -3241.12084 -3252.57655 -3255.71960 -3259.89705 -3265.79845 -3268.26326 -3273.44495 -3276.49645 -3280.13090 -3285.42766 -3291.54043 -3297.84322 -3311.14200 -3325.24091 -3325.34091
-5115.13860 -5115.03860 -5114.44713 -5113.66771 -5113.69601 -5110.19266 -5110.57457 -5111.64315 -5111.04734 -5108.34420 -5106.21886 -5104.17337 -5103.34694 -5101.34408 -5098.37429 -5094.72663 -5090.88213 -5088.43977 -5073.45289 -5014.00337 -4639.91437 -4001.82909 -3104.93773 -2610.80240 -2543.65844 -2616.09156 -3005.80783 -2871.99196 -2882.52234 -3038.48364 -3447.45228 -3309.38623 -2455.90949 -1610.46546 -1162.60400 -958.20045 -892.72781 -832.86628 -783.72604 -762.37856 -730.02417 -623.87484 -512.19977 -294.17019 -234.12254 -172.11667 -146.74564 -113.73313 -65.05503 -50.45632 13.17681 63.32212 147.48480 217.13906 247.37800 216.76079 167.35598 158.58226 178.15441 173.97811 165.41006 162.21773 159.24143 160.83699 172.36128 177.71364 185.26479 189.97881 204.67703 196.88286 196.79442 209.46559 209.60608 209.70141 221.16953 233.26176 240.66561 256.23307 267.88903 293.61284 306.00384 348.06592 364.76710 390.04102 400.45330 404.78902 390.06545 391.13920 480.36571 552.95596 375.42966 168.59820 136.09783 133.44919 111.51863 63.20016 18.14984 8.01128 -15.29244 -73.72652 -114.40416 -168.11013 -203.39429 -282.20966 -439.21190 -612.44276 -880.54130 -1153.04420 -1339.85028 -1912.34026 -2678.01915 -3751.81786 -4437.25037 -4679.80081 -4803.30062 -4832.94040 -4869.70823 -4849.35141 -4284.55433 -3686.74308 -3522.24501 -3319.87788 -3188.30585 -3133.83517 -3150.08510 -3177.15369 -3214.26118 -3231.91333 -3243.04336 -3253.55466 -3259.71068 -3264.62615 -3267.80220 -3269.12749 -3272.70398 -3275.93557 -3280.93866 -3283.39880 -3290.87395 -3299.74266 -3310.74471 -3326.69280 -3326.79280
-5122.02358 -5121.92358 -5121.65254 -5122.70739 -5121.98435 -5121.10066 -5118.53537 -5118.89984 -5116.57986 -5117.00796 -5114.67406 -5112.88504 -5109.45406 -5107.16860 -5104.15283 -5101.84775 -5098.65394 -5093.87379 -5086.04674 -5033.84479 -4784.69544 -4420.55142 -3941.75233 -3695.23602 -3654.26056 -3917.42373 -4111.36440 -4286.41830 -4253.07342 -4354.84970 -4221.83998 -4712.50006 -3259.39925 -2045.04965 -1182.07171 -1072.49325 -989.10113 -863.27134 -822.90890 -843.10914 -860.14642 -724.81744 -539.07239 -349.17008 -254.69879 -195.11790 -155.14562 -139.00969 -74.86016 -50.34948 10.28626 92.82746 183.15471 222.66465 190.00699 139.04946 114.60337 117.65002 124.05749 137.54822 151.39971 145.45626 146.37500 151.42843 153.00316 160.02462 165.24644 171.89123 169.48786 182.06813 185.88576 186.37981 192.18326 200.60064 211.00936 212.81910 222.02178 239.91576 249.51327 275.48472 308.02365 328.52325 335.07715 355.61236 368.08968 374.61247 367.82013 442.47805 562.94558 491.78915 222.19347 160.72976 110.64901 81.70994 75.96226 43.64188 -4.10161 -55.87370 -67.50888 -82.25419 -133.21273 -207.87562 -301.06651 -595.68762 -686.29196 -803.52318 -1088.77701 -1443.90212 -1840.81566 -2853.03774 -3947.70536 -4173.73009 -4610.28886 -4733.13650 -4823.18686 -4861.42902 -4898.66359 -4803.93954 -4530.31986 -3847.77651 -3574.40303 -3266.00733 -3143.95878 -3119.43849 -3159.11006 -3187.12132 -3213.19368 -3235.58407 -3245.10306 -3257.00740 -3263.08562 -3265.54082 -3267.94147 -3270.46897 -3272.78820 -3276.52933 -3279.94809 -3283.40283 -3289.89660 -3299.40097 -3310.82859 -3328.29385 -3328.39385
-5128.85858 -5128.75858 -5128.32528 -5127.51845 -5127.60072 -5128.42000 -5124.89095 -5123.33471 -5123.87564 -5121.86167 -5121.40774 -5117.98912 -5116.43830 -5113.04060 -5111.22702 -5107.79124 -5105.37364 -5101.86141 -5096.11268 -5084.25104 -5008.73378 -4709.03703 -4679.60556 -4583.97624 -4425.25792 -4626.75066 -4682.05272 -4714.71440 -4720.01819 -4808.26199 -5034.36447 -5052.33440 -4267.41082 -2391.19087 -1510.15644 -1278.12246 -1068.92294 -918.30888 -890.18209 -898.35420 -871.92812 -769.79286 -515.15795 -396.73159 -292.22187 -209.93879 -179.73732 -142.60307 -102.94279 -56.66276 -14.38202 79.78211 139.72284 170.62889 126.53529 86.60225 93.15880 90.47060 93.02607 96.61392 104.62666 111.79300 130.65659 129.50327 133.03294 140.55961 154.25422 160.96650 164.82092 167.47114 175.46168 181.29353 184.99624 189.50790 187.32839 194.55084 209.58319 219.88367 238.21264 273.15594 292.05427 305.77134 310.11259 329.69331 328.53465 332.68135 334.94946 362.47255 448.49905 332.94268 126.91607 111.15855 62.49106 45.03870 45.93169 8.51709 -34.72210 -49.73154 -116.15468 -117.95535 -196.34752 -364.50546 -571.25189 -873.17202 -892.78397 -1160.60160 -1438.99548 -1738.25811 -3673.78433 -3773.37801 -4560.09414 -4656.45762 -4596.56081 -4716.88431 -4856.21906 -4890.92978 -4896.81568 -4862.82067 -4577.61612 -4190.42830 -3702.41113 -3225.79871 -3105.26704 -3123.57628 -3163.16794 -3196.49018 -3217.92499 -3239.67689 -3248.28395 -3257.87765 -3262.55059 -3266.69670 -3268.15364 -3270.27675 -3272.76446 -3274.70175 -3279.18163 -3283.54962 -3289.93492 -3301.31812 -3311.57992 -3329.55854 -3329.65854
-5135.72415 -5135.62415 -5135.59090 -5136.01635 -5134.14621 -5134.61369 -5133.04749 -5131.69109 -5131.63561 -5128.45925 -5126.12279 -5124.71548 -5122.31186 -5120.79849 -5117.24830 -5115.71988 -5112.51670 -5107.53877 -5105.37264 -5095.71406 -5093.05561 -5009.83617 -4963.83155 -4911.56708 -4940.61284 -4981.42590 -5018.68266 -5030.04669 -5015.37307 -5041.46167 -5107.69964 -5120.01228 -4579.02674 -3782.99800 -2009.27161 -1398.26719 -1231.47841 -1021.11814 -983.45281 -994.72466 -898.79811 -823.51817 -634.33587 -521.11691 -404.30184 -233.67302 -199.08833 -147.11615 -102.78535 -74.94759 -38.25037 52.07900 55.67016 78.97745 68.58132 65.14903 57.81179 60.09807 71.91156 88.74469 80.63237 89.85248 89.21182 108.63002 114.98738 125.59283 140.70467 151.57550 156.92885 160.45816 167.23308 171.11981 174.28461 175.65793 174.55914 166.41943 187.01563 199.98242 223.42462 238.38824 260.97299 277.79320 291.70430 300.15151 309.03188 315.94031 317.88432 364.50749 290.35222 137.73432 96.86242 92.52709 46.00590 20.30055 -6.21785 -19.87155 -77.15858 -98.07069 -143.79504 -210.17917 -313.32589 -614.18346 -918.40352 -1299.05363 -1208.01577 -1622.32206 -1998.69197 -3486.46532 -4523.18270 -4613.49442 -4925.30598 -4937.73844 -4811.67362 -4521.09137 -4613.54337 -4796.65169 -4948.13797 -4838.32586 -4894.26764 -4616.33814 -3692.21985 -3184.31939 -3094.13969 -3117.70235 -3151.48828 -3203.69209 -3223.92952 -3241.81522 -3252.15319 -3257.22711 -3264.77573 -3267.11445 -3268.83484 -3270.24879 -3271.80664 -3275.36083 -3277.65939 -3281.36902 -3290.36478 -3301.09519 -3312.28151 -3331.59364 -3331.69364
-5142.66559 -5142.56559 -5141.72115 -5141.42609 -5141.76991 -5140.14955 -5139.68805 -5139.52811 -5136.43298 -5137.02366 -5135.71472 -5133.41424 -5133.11969 -5127.94668 -5129.51506 -5124.35058 -5121.05336 -5115.81976 -5113.86531 -5108.87381 -5102.60346 -5081.96208 -5082.66160 -5072.88885 -5071.08809 -5047.77073 -5063.65884 -5059.38060 -5052.58016 -5064.95538 -5097.69632 -5112.97809 -4747.75460 -3919.27900 -2542.10392 -1837.22334 -1422.77292 -1234.73604 -1166.45286 -1059.89281 -975.03063 -914.56803 -845.36371 -596.25826 -497.72734 -275.95696 -227.27996 -164.01165 -116.33560 -92.29777 -46.19278 11.11515 16.69435 14.73141 15.05973 20.34771 31.59474 28.59292 16.50368 44.20809 37.80015 47.00578 70.07250 87.17388 96.33578 107.98505 130.46358 143.94861 147.93459 153.61600 151.35584 153.94256 155.51302 154.50910 160.16886 158.53332 162.13488 178.94622 194.48087 225.81537 241.79248 260.05862 275.03666 277.98084 278.36575 272.12217 337.83888 439.61110 282.89762 88.56765 61.30473 45.45252 27.75119 2.62493 -14.33312 -46.03478 -119.83475 -156.81836 -211.40515 -327.16758 -495.64640 -1211.36098 -1628.74776 -1606.37931 -2693.74943 -2540.17566 -3620.55117 -4678.42955 -4889.78029 -5070.30296 -5073.06820 -4999.66371 -4982.86706 -4598.65003 -4591.30434 -4822.17845 -4972.44451 -5156.51983 -4856.60959 -4229.22973 -3489.57248 -3144.78474 -3096.92117 -3118.70121 -3183.88680 -3211.82165 -3231.64602 -3244.07864 -3254.38853 -3259.46012 -3265.48973 -3268.11065 -3268.91305 -3269.90917 -3271.44705 -3274.34009 -3276.31169 -3280.80385 -3287.46921 -3298.69502 -3312.22790 -3333.43886 -3333.53886
-5149.61759 -5149.51759 -5150.02665 -5149.07553 -5149.45625 -5146.42220 -5147.19080 -5145.06241 -5143.57580 -5143.70557 -5141.59153 -5138.91283 -5137.81931 -5136.96180 -5135.32924 -5131.00723 -5129.58152 -5126.68957 -5124.44500 -5119.95895 -5118.55117 -5108.84850 -5106.52439 -5108.69177 -5097.51937 -5091.03773 -5087.10720 -5073.19258 -5061.71342 -5070.54633 -5087.62339 -5110.19822 -5094.93181 -5051.50970 -3626.00136 -2592.59603 -2029.81912 -1512.16561 -1343.06296 -1147.69794 -1022.75778 -916.83175 -828.43203 -651.35690 -438.27819 -327.61501 -249.55372 -181.52702 -138.68536 -116.85335 -83.25107 -40.89307 -34.54730 -48.29303 -21.65485 -16.26267 -7.59258 -6.31200 15.06889 18.36130 18.54913 22.22378 39.32013 56.31834 80.41607 94.03505 120.35671 134.58151 143.26686 145.02920 145.07854 141.10547 143.20307 138.17560 138.97732 142.66084 150.04791 163.80903 188.92857 200.18901 208.38950 230.45400 241.36375 241.58059 248.79847 233.32536 255.83991 361.23753 254.92038 84.68817 40.85965 3.39579 7.78919 -22.99647 -62.49489 -97.08671 -119.15459 -230.16531 -569.22552 -1044.12550 -1097.74919 -1995.22389 -2095.47171 -3454.91322 -4548.90233 -4408.93896 -4362.98517 -5054.92151 -5238.32296 -5254.36135 -4895.54173 -4996.95069 -4970.49285 -4817.51629 -4289.40846 -4471.83100 -4664.45573 -5101.32791 -4947.50762 -3731.21656 -3235.22545 -3104.75807 -3104.13059 -3151.02789 -3186.18246 -3211.91955 -3234.47958 -3249.55202 -3257.78083 -3263.50290 -3268.01281 -3268.69539 -3269.27366 -3269.93427 -3271.34289 -3272.96656 -3275.40543 -3279.68309 -3286.84078 -3298.59286 -3313.49961 -3334.94869 -3335.04869
-5156.62600 -5156.52600 -5156.08064 -5157.47835 -5155.25897 -5154.89123 -5153.89183 -5154.84093 -5151.92388 -5151.45952 -5150.59769 -5148.95477 -5146.99315 -5144.98649 -5143.00332 -5143.02422 -5137.62554 -5134.48717 -5132.14921 -5131.40967 -5129.40894 -5124.81568 -5118.90512 -5114.29426 -5109.01159 -5102.12791 -5099.89562 -5086.13685 -5074.34508 -5075.28222 -5079.62015 -5093.37674 -5111.55300 -5090.56690 -5042.32820 -4315.27944 -3301.27801 -2145.90831 -1573.12071 -1149.98532 -973.93451 -906.94616 -811.71823 -696.23755 -460.87621 -363.16546 -297.25995 -220.29757 -164.16640 -140.87495 -99.72898 -97.09004 -86.18625 -66.96516 -62.17862 -61.58230 -57.69388 -39.20935 -25.17894 -18.02093 -3.17520 -0.23100 16.11895 40.65664 54.23481 88.49898 118.52639 139.76576 136.79998 139.99518 139.88961 136.80884 129.32845 126.29622 126.97055 125.89999 133.57501 140.52972 153.04306 173.93801 202.92763 216.82898 219.80832 219.23536 217.97008 203.78865 185.86189 209.96792 110.81807 56.51082 20.67165 -29.97738 -51.17025 -52.48517 -110.88188 -123.81996 -248.10675 -619.82568 -1249.46339 -1872.70789 -2496.00257 -3380.15535 -4243.42614 -4787.24825 -5167.63938 -5179.71980 -5227.81003 -5320.04846 -5122.28331 -5270.34655 -4895.96815 -4133.96276 -3120.24578 -3184.23683 -2925.54231 -2889.36156 -3864.14511 -4503.48761 -3911.23199 -3374.61840 -3096.94553 -3080.50962 -3108.80881 -3146.36837 -3191.82588 -3222.44778 -3237.44637 -3253.13294 -3261.81015 -3265.89419 -3269.50429 -3269.74639 -3269.78229 -3269.82334 -3271.08989 -3272.34364 -3274.36035 -3280.06055 -3286.59754 -3295.49971 -3314.87647 -3336.27078 -3336.37078
-5163.80277 -5163.70277 -5164.16091 -5162.85300 -5162.18473 -5163.22098 -5162.25552 -5161.64263 -5161.31769 -5158.87819 -5158.49679 -5158.88726 -5156.49499 -5156.30705 -5152.03555 -5153.34027 -5150.82674 -5150.92748 -5147.01666 -5145.15877 -5138.79461 -5135.16788 -5133.55081 -5126.77806 -5121.28389 -5117.58635 -5113.68802 -5098.61070 -5091.79566 -5081.78246 -5080.84683 -5085.71560 -5095.69131 -5085.00229 -5052.00424 -4757.56166 -4244.11392 -2650.02073 -1889.66048 -1068.98680 -986.85655 -924.08740 -863.62622 -728.66075 -537.23788 -393.63379 -295.62754 -238.48453 -222.65319 -175.93969 -137.42571 -133.89486 -123.31967 -88.86509 -88.07250 -90.32387 -88.04325 -72.51632 -54.05764 -45.81875 -27.41599 -20.27083 -7.24475 11.63572 26.68103 50.33153 91.81656 128.07557 145.41021 142.81638 138.27599 136.90008 109.41835 108.49002 104.96689 112.24511 123.21729 130.66139 137.21766 154.38151 186.51791 197.45410 202.35992 208.20922 187.30645 172.14981 147.94152 186.14360 119.08381 33.92887 -1.82536 -48.33538 -68.10546 -140.21701 -293.20176 -345.98200 -1001.11168 -1093.32444 -1826.66723 -3454.76331 -4385.97512 -5234.07771 -4934.29307 -5213.68748 -5201.56143 -5256.52264 -5319.36412 -4958.08116 -3296.64953 -2353.44557 -933.44080 -703.42775 -951.59142 -973.97604 -1128.44262 -1611.52972 -2971.90911 -3216.78583 -3144.95112 -3074.61031 -3060.47975 -3068.10697 -3121.16763 -3166.97526 -3210.27496 -3231.86641 -3247.04237 -3257.78011 -3265.37065 -3269.54658 -3270.91706 -3270.99542 -3270.63471 -3270.74027 -3271.71225 -3272.03479 -3273.66774 -3278.74088 -3287.57380 -3297.75491 -3317.55722 -3337.73186 -3337.83186
-5171.29380 -5171.19380 -5170.68108 -5172.09834 -5172.74960 -5171.24031 -5170.92669 -5170.44568 -5173.25162 -5169.96850 -5169.44585 -5167.44631 -5166.19958 -5166.82920 -5165.24898 -5164.11954 -5162.47401 -5157.42869 -5158.85946 -5157.26694 -5154.22925 -5152.23454 -5141.05175 -5140.62571 -5135.65802 -5132.25291 -5127.93417 -5121.16399 -5107.61772 -5098.67343 -5087.53662 -5083.11198 -5080.17469 -5071.62412 -5064.42853 -4955.16373 -4234.92861 -3074.59862 -1944.55469 -1257.28908 -991.42239 -927.18196 -873.98683 -831.66245 -692.33268 -464.00369 -352.81767 -277.43763 -248.55839 -199.43209 -183.91600 -176.38318 -157.24123 -148.16238 -131.19064 -106.94071 -123.61096 -92.09473 -79.91447 -69.60198 -68.03839 -58.61944 -38.87884 -5.63291 6.41017 21.44023 81.74819 137.53319 154.51396 147.50464 138.11446 123.06620 104.61020 96.99627 96.07807 100.39169 107.10836 115.93021 128.47288 136.57419 144.61369 170.05624 174.80541 180.28392 175.15218 172.85035 145.76580 111.52338 34.90528 7.87074 3.09959 -62.93688 -122.98357 -195.98358 -517.85219 -1040.65086 -2222.05818 -2952.99419 -3402.95240 -4628.63135 -4944.74449 -5268.84677 -5342.48119 -5303.06099 -5283.44994 -4753.64701 -4047.18567 -2664.83070 -829.99184 -526.21361 -531.39998 -103.08217 -117.75749 -113.28432 -136.14576 -857.65550 -2254.91095 -2929.38693 -3011.49773 -3020.18538 -3029.87840 -3056.70853 -3129.61798 -3181.15182 -3216.95797 -3242.81952 -3250.85788 -3265.06184 -3270.79416 -3273.60099 -3274.25577 -3272.27281 -3271.99085 -3272.17231 -3272.64755 -3272.81389 -3273.93639 -3276.62440 -3288.54275 -3297.84027 -3318.27865 -3338.89609 -3338.99609
-5179.21049 -5179.11049 -5179.63387 -5178.05038 -5178.56677 -5180.11384 -5180.70687 -5180.41775 -5180.36941 -5183.45869 -5182.87276 -5180.63943 -5175.35477 -5177.70409 -5178.55332 -5174.56169 -5177.87317 -5175.52925 -5168.24363 -5170.72221 -5168.71615 -5166.49150 -5164.11369 -5160.82518 -5153.58351 -5149.99461 -5140.93464 -5138.40504 -5140.38679 -5120.80380 -5105.72277 -5096.42606 -5083.21901 -5072.93035 -5061.41641 -4892.32966 -4540.09733 -3205.84876 -1941.27074 -1337.07368 -1076.81725 -999.09754 -909.93075 -863.06378 -782.96915 -565.82532 -403.19413 -324.27351 -300.15650 -281.66163 -249.18804 -246.94346 -187.56763 -163.44020 -171.58980 -170.59672 -158.11349 -121.42696 -109.80730 -95.41832 -94.87416 -78.71240 -64.26248 -51.76448 -16.55274 23.22420 50.37694 122.06876 158.42278 162.73810 143.02364 112.75622 89.86960 83.79816 78.65555 79.97202 83.71090 88.69271 117.89895 120.72070 125.34381 146.04314 162.38963 163.52103 162.29729 133.82901 149.22453 185.15927 81.03236 3.75550 -19.42018 -72.05123 -121.84148 -221.75145 -630.31857 -2142.70782 -2821.30119 -2979.91825 -3658.82187 -4146.41292 -4802.34564 -5208.20900 -5349.09824 -4980.13738 -4250.38404 -2982.74320 -1984.40624 -155.43616 -139.27419 -105.45451 -84.56061 -80.60087 -70.52333 -86.45050 -139.62092 -336.10892 -1972.24045 -2774.34752 -3003.09340 -3023.70807 -3041.59589 -3102.58788 -3152.05493 -3194.01006 -3225.03700 -3250.64394 -3261.51987 -3272.93302 -3277.66882 -3279.71233 -3279.07708 -3277.76534 -3276.76443 -3276.33502 -3276.09725 -3275.84345 -3275.44688 -3278.12877 -3285.57435 -3299.48760 -3314.90133 -3339.73549 -3339.83549
-5187.65209 -5187.55209 -5187.95856 -5191.18467 -5189.83369 -5189.91767 -5191.09339 -5194.17372 -5192.32622 -5191.80593 -5190.41902 -5190.84034 -5191.24631 -5190.27588 -5189.21213 -5189.46420 -5193.17685 -5189.56456 -5188.98090 -5192.23426 -5186.92313 -5183.49470 -5181.29167 -5177.98268 -5173.60709 -5171.21973 -5166.11898 -5159.59873 -5150.18843 -5143.42422 -5125.97600 -5121.91449 -5110.15129 -5090.93225 -5068.69255 -4977.44134 -4555.84275 -3877.22249 -2749.39298 -1802.56563 -1208.81228 -1037.55980 -962.30838 -896.72787 -822.83171 -649.79689 -449.43905 -419.74158 -370.14361 -348.24246 -343.45787 -302.79733 -254.77890 -266.63988 -204.88144 -185.11652 -173.58497 -155.18024 -150.38267 -139.16004 -130.42358 -114.60257 -87.23476 -76.01558 -67.53235 -17.86687 27.08442 80.14131 104.24224 136.28692 148.25661 102.84837 86.62591 61.42534 58.86801 61.88462 63.96165 64.88050 98.61313 101.80654 114.61495 116.49931 132.34123 135.13692 134.61161 117.22201 85.29472 187.96259 139.33473 -15.57428 -74.14861 -110.31894 -254.37359 -541.24912 -912.66410 -1449.91645 -1676.50690 -2498.99389 -3020.65182 -3771.93874 -4680.62001 -3220.20492 -2714.28063 -1641.34427 -1324.16326 -203.02704 -165.35086 -126.12582 -102.26042 -69.60123 -48.36668 -49.70710 -54.39461 -81.90419 -130.91263 -295.20718 -2025.59431 -2857.92051 -3004.77410 -3040.47819 -3078.17045 -3119.36508 -3166.23100 -3218.06257 -3236.74842 -3259.86105 -3273.81334 -3277.96508 -3284.80928 -3286.30496 -3285.55261 -3284.91311 -3284.80924 -3283.60463 -3282.12917 -3278.88801 -3279.40715 -3281.94297 -3288.21095 -3304.19926 -3319.06112 -3341.21837 -3341.31837
-5196.70282 -5196.60282 -5198.26045 -5198.08542 -5201.06915 -5199.18085 -5200.03714 -5198.95924 -5202.09524 -5204.62695 -5205.13718 -5209.88763 -5207.33111 -5206.41037 -5206.86698 -5209.54071 -5208.65088 -5209.40751 -5206.30543 -5204.68597 -5203.98843 -5202.14449 -5197.90277 -5199.12139 -5194.90073 -5186.54465 -5184.30393 -5175.50283 -5173.72283 -5166.06691 -5151.68731 -5139.92922 -5123.59244 -5112.26577 -5099.04820 -5036.59955 -4822.05166 -4070.11114 -3064.99427 -2380.57037 -1569.39575 -1194.64157 -1034.52094 -938.16587 -888.50979 -840.02929 -690.16526 -521.05376 -517.36572 -520.09587 -525.47307 -405.74640 -391.14403 -363.95473 -277.22556 -234.90501 -223.31793 -218.32410 -207.54860 -187.16103 -168.82586 -134.15410 -110.54877 -98.06413 -72.84413 -49.05350 -10.10944 36.12409 63.06989 67.92996 129.16868 80.76593 64.63602 42.16264 36.44038 43.55801 47.68884 51.63257 58.38669 69.62933 94.44890 104.10674 109.66664 120.09574 117.13539 95.51736 51.73068 66.24639 114.43181 -8.19403 -121.20960 -164.49346 -255.76509 -584.19298 -842.03666 -1115.84360 -1219.66799 -1804.03196 -2831.23059 -2238.65986 -1335.21764 -347.87545 -403.67394 -369.61629 -176.66579 -142.44497 -94.21331 -67.67863 -64.09649 -58.78719 -44.83034 -49.13587 -67.25076 -96.49078 -157.16275 -696.33119 -2147.55415 -2964.98870 -3011.19605 -3050.87520 -3116.05528 -3144.12597 -3189.47672 -3235.14924 -3262.95703 -3269.83260 -3281.32389 -3288.73168 -3291.79551 -3293.93318 -3297.52235 -3293.49255 -3294.66884 -3292.56535 -3292.22680 -3291.29843 -3288.45857 -3289.11860 -3292.90715 -3307.57483 -3321.89257 -3342.43668 -3342.53668
-5206.37955 -5206.27955 -5203.77686 -5209.28530 -5210.43854 -5210.37924 -5213.54609 -5213.57468 -5218.66593 -5218.91682 -5216.70996 -5218.11724 -5218.80526 -5219.55520 -5218.34859 -5222.40589 -5221.70729 -5219.36637 -5224.01030 -5221.86297 -5218.78842 -5217.10218 -5216.51751 -5216.07704 -5210.29505 -5208.33257 -5202.99938 -5198.11159 -5189.80694 -5186.17817 -5175.12405 -5163.53620 -5150.99366 -5137.44441 -5130.59609 -5088.02240 -4951.15422 -4476.63358 -3758.27850 -2710.32363 -2091.15241 -1403.92259 -1162.62690 -1025.51172 -982.24345 -829.24467 -787.49740 -757.02738 -748.59889 -696.29032 -708.00203 -664.54868 -583.08329 -523.06247 -398.09275 -338.15260 -297.98047 -330.13958 -276.83178 -243.86368 -189.23902 -161.58981 -153.05808 -135.55744 -98.30097 -80.50836 -65.68194 -22.90666 4.22760 46.36064 33.16367 21.90507 34.60482 24.19212 24.73318 19.11023 22.73337 35.92201 43.67795 58.26422 66.99816 77.04800 87.00201 91.95488 84.24820 71.24651 34.29304 22.27194 -3.10062 -59.90974 -134.88456 -196.36686 -314.38545 -456.90212 -587.03891 -684.27848 -909.94014 -1519.30879 -1421.36523 -782.85957 -238.42980 -159.38343 -140.78208 -159.25390 -104.95739 -64.94734 -53.29111 -53.14605 -59.72490 -65.47653 -62.52208 -79.25773 -97.52358 -115.92815 -171.66755 -747.78433 -2235.72514 -3000.71280 -3042.51877 -3088.50632 -3117.31692 -3166.99635 -3207.11799 -3242.54297 -3267.44143 -3282.08583 -3290.10025 -3298.78068 -3307.03457 -3309.12475 -3306.94323 -3308.26299 -3302.00865 -3307.95795 -3307.72135 -3299.01322 -3300.31541 -3299.71804 -3301.82465 -3314.07817 -3324.84674 -3344.01021 -3344.11021
-5216.49465 -5216.39465 -5220.77610 -5221.84302 -5222.13572 -5224.73588 -5225.04463 -5224.65560 -5229.01570 -5229.63274 -5234.45725 -5237.68579 -5239.60806 -5237.26046 -5240.15114 -5243.63442 -5240.89101 -5241.36816 -5240.66603 -5239.36423 -5239.59032 -5235.43887 -5237.57687 -5230.13921 -5230.92218 -5223.73170 -5221.39505 -5216.95445 -5209.50721 -5204.86216 -5197.05384 -5182.67242 -5175.68062 -5164.37867 -5148.09641 -5120.42285 -5063.95015 -4805.70482 -4458.69636 -3150.53337 -2477.77091 -1812.38328 -1571.27097 -1191.58922 -1137.74120 -957.77479 -889.09319 -826.48278 -819.49157 -822.16750 -849.69027 -909.87533 -804.98638 -617.14614 -609.04879 -504.48156 -491.35797 -539.05051 -440.48561 -334.32010 -234.49403 -199.66698 -196.18896 -171.77338 -150.72560 -116.00086 -101.36253 -46.76593 -34.75739 -15.64620 -2.06974 -4.64949 2.95295 3.95695 5.47172 4.65033 7.86883 11.89513 27.25140 39.48360 48.62070 55.47130 77.92305 77.29520 75.83220 63.25833 24.83651 -28.78715 -67.97512 -76.25661 -198.58482 -266.32070 -353.41359 -384.41490 -450.64402 -533.00168 -575.38680 -528.97544 -385.29522 -244.49419 -90.65501 5.44980 -6.60033 -55.32422 5.94796 -8.44285 -33.79959 -51.58196 -73.29588 -75.84863 -91.48355 -100.70873 -121.21874 -397.26767 -1482.09892 -2298.35881 -3030.17637 -3030.56405 -3066.27612 -3089.84545 -3131.77888 -3176.05870 -3216.68710 -3252.92585 -3275.10752 -3286.37717 -3308.73651 -3317.88739 -3318.04395 -3324.70860 -3328.86937 -3335.90260 -3333.72581 -3327.19980 -3322.84418 -3320.91780 -3313.99437 -3314.97492 -3315.23236 -3323.43567 -3329.74696 -3345.76921 -3345.86921
-5227.21134 -5227.11134 -5228.97423 -5231.10688 -5235.74341 -5237.22122 -5240.41010 -5243.87653 -5245.83660 -5246.88326 -5250.11134 -5250.16755 -5251.03521 -5254.57273 -5254.85727 -5255.32266 -5251.51482 -5260.99202 -5255.90254 -5257.48183 -5250.74859 -5255.75370 -5253.67986 -5249.20164 -5244.88268 -5237.70529 -5234.86964 -5232.97652 -5226.04358 -5219.13863 -5212.84271 -5204.82253 -5189.89060 -5177.76005 -5173.72211 -5146.85193 -5124.95779 -5018.38164 -4562.66633 -4271.01702 -3304.20011 -2912.95827 -2087.00462 -1965.62766 -1881.67353 -1258.99355 -1095.31467 -975.27892 -898.61936 -928.46139 -958.31975 -998.09299 -877.81871 -769.35768 -688.09172 -700.43945 -685.93405 -635.74851 -560.43016 -400.86755 -276.85431 -240.92564 -236.29112 -177.48729 -161.33291 -134.94731 -124.93481 -88.69147 -77.02061 -59.83375 -49.28017 -30.62887 -26.09979 -17.01155 -18.26210 -12.77321 0.05167 2.50141 10.46186 22.18415 31.28500 38.41324 48.25596 50.44505 41.37396 34.57060 13.27125 -24.27266 -64.70593 -125.78753 -170.75883 -289.60804 -302.60693 -320.88130 -384.43145 -382.20271 -360.90475 -313.47677 -184.39445 -49.04834 25.78015 76.40565 124.52396 131.91929 93.11529 47.76730 -34.15031 -74.74240 -102.19220 -106.41577 -135.93093 -937.26834 -1450.83669 -2099.13147 -2340.38493 -3064.90743 -3069.40698 -3045.75912 -3050.31121 -3081.27307 -3133.43064 -3176.27266 -3232.58077 -3276.05877 -3293.67590 -3315.71700 -3323.06322 -3332.16335 -3340.85602 -3345.59561 -3350.57256 -3355.32460 -3357.74275 -3359.10720 -3351.05815 -3353.64750 -3338.39042 -3332.35193 -3326.50762 -3328.68629 -3336.53392 -3347.45867 -3347.55867
-5238.48224 -5238.38224 -5240.46607 -5245.40928 -5248.51164 -5250.50265 -5252.76743 -5256.39471 -5260.82458 -5263.35120 -5267.90885 -5265.89809 -5270.94013 -5275.62492 -5278.56544 -5275.12043 -5279.93771 -5276.50325 -5269.35238 -5273.32751 -5273.07059 -5268.35275 -5267.27299 -5265.33220 -5265.86494 -5258.80644 -5253.87539 -5254.82736 -5244.24103 -5234.30769 -5225.91522 -5221.55121 -5212.78789 -5202.35764 -5186.25721 -5168.91774 -5153.63374 -5069.96298 -4910.81181 -4711.06202 -4427.61651 -4051.44552 -3289.48801 -3151.26110 -2456.37770 -1904.56886 -1381.78722 -1158.85961 -1102.60085 -1079.54446 -1066.01796 -1028.60397 -950.87708 -858.47831 -791.21922 -746.16470 -722.78458 -700.04212 -592.26657 -519.20042 -449.98395 -396.43523 -333.15674 -282.99056 -219.19540 -160.20866 -133.89934 -120.85112 -103.04463 -79.59049 -69.44289 -67.17798 -59.08424 -43.91454 -34.66843 -33.37816 -26.11689 -9.77471 2.02759 14.84329 20.06868 20.84080 25.00211 30.46677 35.30094 26.09559 10.12690 -34.47042 -65.76176 -104.24095 -165.50991 -250.37838 -273.83284 -286.38094 -247.20339 -240.75994 -188.64766 -112.07947 -6.74653 161.79485 250.33562 359.94427 317.23908 204.17305 111.76905 6.49837 -36.65640 -90.34844 -146.08566 -399.13324 -934.77257 -1779.37060 -2298.37097 -3235.34659 -3089.90303 -3022.34023 -3011.15772 -3013.11528 -3058.00160 -3094.27291 -3158.85400 -3197.74841 -3245.66965 -3279.30979 -3315.53248 -3331.24710 -3340.30638 -3353.21237 -3358.75124 -3375.95462 -3379.90189 -3380.79123 -3386.34584 -3389.03508 -3388.08068 -3372.04244 -3359.39917 -3342.11018 -3344.62905 -3343.77135 -3344.13934 -3349.98184 -3350.08184
-5250.92105 -5250.82105 -5255.72290 -5260.74378 -5267.27024 -5273.53680 -5269.70836 -5276.85495 -5281.70833 -5283.49314 -5286.78309 -5288.87051 -5291.11915 -5295.36906 -5292.72278 -5287.34278 -5295.08341 -5296.93229 -5297.35456 -5296.69999 -5293.68254 -5291.38988 -5290.74363 -5290.51972 -5285.31216 -5283.27490 -5274.06624 -5266.19491 -5261.36030 -5258.87059 -5251.15073 -5240.25819 -5234.57226 -5222.04919 -5200.12400 -5172.56692 -5162.47207 -5137.13875 -5081.12508 -5063.18037 -4881.68552 -4760.50818 -4408.66194 -4060.65736 -3621.61916 -2894.05962 -1967.00633 -1524.86396 -1353.20929 -1329.20485 -1201.76485 -1123.31666 -1026.79518 -919.93119 -853.15639 -845.47396 -773.43989 -727.72126 -685.49615 -698.50405 -538.67354 -481.60445 -402.15062 -335.32362 -300.41472 -213.26128 -172.26118 -147.13918 -122.25489 -103.30666 -90.89376 -84.87175 -78.81921 -67.52911 -52.79665 -48.77717 -28.17608 -15.08212 -5.07407 6.75613 7.97251 9.83551 10.69993 17.89034 12.53927 8.32633 -0.58664 -22.48552 -53.70658 -86.11967 -153.41872 -211.04691 -212.97966 -240.22867 -207.09541 -130.74261 -109.58542 -64.69522 159.08149 373.76956 428.04477 609.30676 399.72954 185.01472 80.85866 -17.42767 -53.03803 -119.95448 -242.18268 -755.82508 -2467.38683 -2861.87097 -2941.08337 -3075.51439 -2959.23700 -2959.78473 -2964.07162 -3001.51585 -3055.59994 -3124.56225 -3175.57621 -3198.99581 -3277.49056 -3315.27871 -3331.59238 -3352.04491 -3371.73802 -3387.05873 -3385.88565 -3401.79858 -3407.46683 -3422.49951 -3428.12304 -3412.19700 -3416.20763 -3394.97772 -3385.35268 -3371.76695 -3362.80825 -3353.81456 -3350.94521 -3352.11961 -3352.21961
-5265.45907 -5265.35907 -5271.19310 -5273.87881 -5283.38197 -5290.38766 -5300.72304 -5300.24535 -5308.85518 -5315.32566 -5314.14443 -5317.09779 -5312.55152 -5322.91710 -5326.09979 -5327.64443 -5324.19950 -5324.65328 -5329.91671 -5325.38237 -5318.17602 -5322.96144 -5322.41033 -5309.75992 -5308.84672 -5303.35813 -5306.95414 -5292.22168 -5289.75854 -5283.82761 -5273.78239 -5264.26150 -5261.10207 -5244.37809 -5226.80459 -5212.62279 -5175.19502 -5171.58662 -5120.46293 -5091.68582 -5033.87449 -5029.65432 -4870.31191 -4735.08012 -4409.39591 -3193.96592 -2927.13849 -2234.61652 -1718.79494 -1593.42653 -1265.19692 -1183.47768 -1106.52376 -1051.48517 -977.29643 -930.03977 -846.68118 -800.30193 -812.55409 -820.69332 -679.16062 -582.37319 -505.68305 -478.52053 -382.52901 -265.31151 -214.00895 -198.03392 -149.62301 -126.29028 -108.42222 -100.14728 -90.49999 -82.42515 -66.79507 -60.26291 -41.08494 -25.66412 -1.98845 5.49615 7.27394 8.80468 8.46472 8.13915 6.08502 0.02956 -7.22438 -22.60642 -33.64695 -42.06157 -101.37288 -162.51481 -116.73379 -116.09362 -150.77321 -115.02337 -34.85070 75.85527 377.40688 626.59084 519.96318 459.05389 117.22406 52.02795 -3.17975 -67.77939 -107.69341 -159.78375 -255.08005 -1959.80847 -2778.97672 -3036.41741 -2985.30008 -2956.09381 -2922.81266 -2922.17545 -2970.28414 -2997.04718 -3093.83853 -3136.72605 -3214.83868 -3240.83575 -3295.74675 -3335.14514 -3360.10524 -3378.20316 -3403.53284 -3419.40489 -3431.64217 -3447.13719 -3450.12082 -3459.92061 -3458.84161 -3459.37437 -3434.99082 -3428.47882 -3407.27753 -3396.88264 -3372.90693 -3365.15502 -3356.45493 -3353.55223 -3353.65223
-5283.26253 -5283.16253 -5292.35578 -5299.66108 -5309.97393 -5313.50805 -5327.10169 -5332.86186 -5333.04497 -5345.38705 -5341.09171 -5365.79202 -5355.46579 -5354.62794 -5355.23684 -5356.56735 -5356.12302 -5354.73065 -5358.10423 -5361.28888 -5368.72851 -5358.29498 -5356.67613 -5356.86905 -5349.16550 -5346.94047 -5354.32158 -5332.11628 -5337.02123 -5323.20895 -5309.48041 -5300.24607 -5285.27023 -5281.09035 -5245.47585 -5241.51388 -5203.13366 -5195.71429 -5171.21271 -5113.41529 -5096.34042 -5070.14921 -5037.24957 -5003.98550 -4729.44389 -4256.76159 -3917.61765 -2976.65053 -2553.77504 -2005.50665 -1664.68109 -1242.21259 -1281.50563 -1242.13954 -1094.95750 -1085.79237 -977.96830 -967.63140 -947.23659 -1004.71012 -894.30252 -771.57953 -685.30641 -569.45898 -457.33429 -334.97866 -265.44357 -243.65716 -207.87915 -171.29489 -138.04771 -119.15317 -96.33687 -89.66145 -71.91759 -56.43154 -37.45359 -30.96072 -19.97132 0.57979 4.18071 8.19735 6.68642 11.22277 13.00931 6.18061 4.96800 -5.61687 -14.51243 -22.48469 -35.66341 -49.92486 -73.94947 -71.74857 -71.09398 -56.71616 113.70644 308.08510 508.07834 730.13652 530.75023 240.35892 36.39883 -56.53875 -84.27524 -168.58655 -210.48810 -553.09611 -1091.19562 -2464.72963 -2942.00229 -2926.01369 -2914.79001 -2910.57022 -2902.59012 -2928.12360 -2980.84679 -3036.46496 -3107.48723 -3178.38513 -3220.29051 -3280.57371 -3324.70656 -3361.53172 -3390.76796 -3411.51662 -3429.60148 -3448.37449 -3469.39129 -3475.65125 -3486.87451 -3492.59321 -3485.48417 -3483.00633 -3464.10019 -3444.76756 -3430.67090 -3414.42621 -3389.14347 -3371.41604 -3361.49633 -3353.50049 -3353.60049
-5306.08136 -5305.98136 -5314.79649 -5324.75141 -5337.37327 -5348.37496 -5363.32797 -5381.81801 -5386.43962 -5395.47747 -5418.71444 -5400.81011 -5404.39003 -5408.93898 -5386.93378 -5402.00220 -5398.22393 -5416.14060 -5416.97732 -5407.97734 -5397.34197 -5400.44829 -5405.38862 -5399.21087 -5402.47527 -5406.62952 -5393.14917 -5386.87563 -5372.99515 -5379.05721 -5370.01058 -5345.86857 -5337.71252 -5318.69760 -5305.55888 -5270.37527 -5254.92472 -5224.46181 -5215.79344 -5177.06730 -5155.77997 -5109.36386 -5077.58141 -5054.25950 -5046.86567 -4750.86504 -4541.31451 -4258.13067 -3762.31264 -3019.82931 -2456.92460 -2011.40665 -1764.36521 -1720.14768 -1346.16525 -1241.23565 -1261.79832 -1189.43252 -1659.61922 -1642.56369 -1312.89243 -926.46659 -700.95915 -607.03045 -456.02512 -376.50429 -338.12728 -288.36272 -243.60996 -215.89535 -163.68009 -139.33620 -122.18809 -87.46727 -60.22794 -48.48846 -41.20424 -24.90826 -17.69693 -8.72275 -2.30758 3.87111 11.90699 15.56174 28.00836 25.21188 22.99916 22.70824 11.70343 14.15702 -2.37216 -23.20398 -25.30498 -9.74767 -12.09287 68.54436 210.81343 442.97150 548.44087 497.83057 202.92257 52.49913 -13.96135 -66.59833 -117.42729 -208.85282 -255.08279 -700.61735 -2199.56893 -2835.10207 -3013.36770 -2905.69802 -2905.49266 -2895.50517 -2911.36681 -2948.89201 -3018.73289 -3056.38283 -3144.71325 -3187.82670 -3265.15882 -3323.64604 -3370.36570 -3400.62965 -3428.40592 -3443.66948 -3472.47222 -3485.38566 -3503.94390 -3511.62007 -3517.41195 -3518.98729 -3508.15275 -3503.68265 -3484.17876 -3467.05489 -3450.68014 -3415.18021 -3397.15087 -3373.68272 -3363.16210 -3351.95337 -3352.05337
-5336.15155 -5336.05155 -5352.86641 -5371.80453 -5374.60623 -5387.58883 -5409.49381 -5426.16770 -5434.70509 -5445.21467 -5457.78623 -5453.57258 -5463.55851 -5456.13180 -5457.77484 -5455.17375 -5459.96862 -5467.67991 -5464.13942 -5464.79501 -5458.77884 -5477.96870 -5464.31331 -5465.29636 -5479.56609 -5465.76279 -5458.52746 -5448.50283 -5465.54472 -5429.64598 -5433.86410 -5404.55834 -5398.46320 -5399.91201 -5363.96354 -5325.69873 -5312.37738 -5293.74385 -5239.03231 -5239.16098 -5201.92505 -5184.90323 -5129.62363 -5114.36086 -5066.46240 -5029.72288 -4973.73566 -4823.18062 -4525.48151 -4087.45465 -3743.71931 -3683.73592 -3436.26040 -3157.43904 -2383.69628 -3032.80216 -2836.72272 -3062.64531 -2515.92748 -2036.24000 -1541.33662 -1010.93106 -743.83926 -566.31649 -441.44390 -378.47567 -359.13460 -299.57615 -258.09805 -221.42149 -205.52306 -153.31089 -119.31611 -83.20621 -57.53612 -46.49444 -34.89270 -21.97427 -15.67376 -8.65643 -5.27795 3.18904 21.66950 30.11341 49.16129 59.90243 60.42746 67.57210 43.99209 48.71976 27.96922 57.72227 9.06052 30.53359 151.25883 281.63017 366.73774 622.25397 578.46348 316.01825 102.86338 12.58392 -83.16563 -133.97179 -174.73620 -808.90631 -1153.42753 -2125.95812 -2634.68785 -3079.20258 -2971.14286 -2914.04550 -2916.77450 -2917.33428 -2934.05386 -2978.03885 -3047.48424 -3102.53941 -3160.90960 -3212.86338 -3279.78952 -3352.99484 -3387.44534 -3431.69404 -3461.97213 -3480.37553 -3502.86681 -3519.49599 -3529.44016 -3537.08612 -3542.14681 -3542.31689 -3528.48022 -3518.00708 -3498.68009 -3473.90614 -3450.76668 -3423.65572 -3396.72318 -3378.26777 -3359.32716 -3348.19142 -3348.29142
-5374.52410 -5374.42410 -5395.29775 -5404.64929 -5432.96215 -5451.19571 -5455.69993 -5471.56103 -5482.93637 -5510.60745 -5531.69838 -5530.50846 -5536.86416 -5554.36000 -5569.34974 -5550.91167 -5541.71893 -5539.19133 -5536.81956 -5522.22514 -5536.75557 -5534.07990 -5553.54374 -5551.51633 -5546.27254 -5535.35960 -5521.14134 -5539.47989 -5528.21150 -5515.02431 -5504.52663 -5505.23255 -5464.28476 -5445.76173 -5426.10832 -5405.24675 -5378.08666 -5346.40597 -5356.14260 -5300.73744 -5251.24153 -5251.02924 -5205.80278 -5170.70483 -5131.85383 -5079.79870 -5019.37455 -4962.58765 -4895.47885 -4707.52989 -4629.16342 -4488.28160 -4307.81091 -4247.09491 -3568.55620 -3928.42016 -3808.43973 -3545.68829 -3043.00431 -2361.53897 -1589.50325 -1202.27285 -840.09357 -550.56746 -462.46473 -394.50929 -382.08725 -344.44611 -262.64526 -236.31628 -222.19990 -192.01967 -110.41820 -86.81789 -66.54128 -46.04868 -31.98898 -19.57358 -12.63668 -5.18555 2.66487 23.28821 42.56620 65.65452 73.36418 85.07348 81.21253 88.28529 92.64339 104.98488 100.73079 183.92323 179.64747 351.29353 403.06289 582.99568 834.28870 812.99824 419.53252 213.17321 3.65255 -95.21753 -161.71516 -262.56758 -746.97720 -1288.71137 -2873.46994 -2609.65902 -3009.40839 -3032.21626 -2953.52946 -2921.17824 -2923.98018 -2934.84282 -2979.44332 -3006.07502 -3077.06954 -3135.43349 -3194.14151 -3278.52083 -3330.45395 -3388.67219 -3430.42665 -3471.95380 -3485.38278 -3510.90076 -3534.84500 -3551.70669 -3558.13609 -3556.96057 -3557.09450 -3549.79567 -3533.98361 -3519.23685 -3499.04497 -3472.02024 -3453.52583 -3413.80617 -3393.17460 -3373.77913 -3355.40369 -3342.82865 -3342.92865
-5422.07084 -5421.97084 -5450.85594 -5456.20370 -5507.89995 -5525.27634 -5543.35418 -5569.45695 -5570.05053 -5591.19322 -5601.39633 -5594.92708 -5590.43472 -5610.83499 -5607.28813 -5619.56135 -5627.34701 -5595.03134 -5631.81421 -5649.53099 -5608.00138 -5603.33704 -5624.35659 -5613.48265 -5627.32582 -5625.64460 -5593.74037 -5606.46757 -5579.32690 -5607.31562 -5577.72630 -5572.77308 -5554.04340 -5525.27798 -5521.11646 -5490.87603 -5498.15449 -5458.52055 -5409.88228 -5378.19390 -5347.51375 -5323.97423 -5312.30774 -5248.51174 -5185.60058 -5137.75228 -5030.54419 -4991.65902 -4888.96146 -4846.50915 -4773.48492 -4727.68923 -4705.16159 -4644.88824 -4559.54611 -4363.81178 -4155.56028 -3709.03920 -3100.27105 -2268.20171 -1735.08368 -1254.38230 -963.41317 -705.59386 -530.12951 -431.14665 -367.40244 -323.17913 -275.36275 -250.30416 -230.79081 -172.68004 -108.97183 -85.48565 -63.81626 -44.52698 -27.25940 -11.39660 3.10682 8.02743 17.87240 42.27454 65.28222 78.09726 96.37425 105.23121 104.75546 108.76922 105.02779 335.91942 374.45362 393.64221 354.51886 917.90544 1067.03153 1387.48287 1376.74947 976.61442 695.27627 387.88388 59.48894 -143.45202 -290.43619 -851.22120 -2147.18272 -2930.54938 -3506.70911 -2969.11560 -3076.25801 -2975.95800 -2943.84161 -2933.32390 -2950.57268 -2961.74696 -2993.13533 -3022.68723 -3109.51012 -3184.41297 -3259.44863 -3309.09836 -3341.75979 -3450.67496 -3468.60232 -3507.80930 -3529.51976 -3550.65726 -3560.04994 -3568.73450 -3571.39495 -3567.32767 -3560.91506 -3549.04258 -3526.57495 -3511.62401 -3488.02583 -3465.95051 -3438.52004 -3409.28637 -3389.68487 -3366.91857 -3347.37291 -3335.77426 -3335.87426
-5480.00545 -5479.90545 -5507.77300 -5536.48950 -5565.18730 -5574.30190 -5608.54693 -5632.22419 -5643.43644 -5676.55898 -5695.20910 -5713.71449 -5695.53311 -5714.27729 -5706.02145 -5704.63227 -5716.66910 -5692.98545 -5709.41253 -5702.84483 -5698.50285 -5704.95251 -5689.80845 -5679.38048 -5666.85874 -5689.26477 -5700.97279 -5683.74768 -5678.67219 -5658.24467 -5661.30222 -5638.23018 -5621.75213 -5609.86768 -5601.67676 -5560.42754 -5538.75643 -5531.51140 -5500.93077 -5489.48673 -5459.22890 -5394.16958 -5364.97277 -5303.25722 -5296.04244 -5182.62765 -5123.75097 -5050.95962 -4960.04122 -4886.07878 -4817.41375 -4766.84919 -4733.30219 -4673.10923 -4602.77616 -4484.85804 -4385.18906 -3888.94006 -3380.86168 -2579.95758 -1733.88298 -1445.14012 -1182.65790 -863.57807 -587.79680 -495.86126 -367.02200 -319.98292 -284.04572 -244.60798 -224.17589 -158.84765 -96.77916 -73.15010 -57.57157 -36.40812 -7.70387 1.58849 6.10936 18.24090 26.36376 52.56607 70.83280 82.46115 105.69620 119.07886 174.34380 276.89031 327.43491 573.33816 854.82437 722.77516 786.12318 1250.90617 1450.38243 1781.96249 1660.73361 1109.62933 927.61382 515.50357 33.70371 -162.46577 -871.17385 -1248.14419 -2596.35928 -3585.85557 -3349.03736 -3113.01760 -3008.08911 -2965.76890 -2952.36644 -2957.58964 -2980.19086 -2997.06703 -3038.76803 -3078.84461 -3146.78651 -3224.67455 -3283.97160 -3368.93666 -3425.81288 -3477.64149 -3504.17463 -3533.78018 -3557.57630 -3564.58855 -3579.58251 -3580.60453 -3574.45283 -3567.97730 -3555.35030 -3542.68069 -3520.81437 -3491.11225 -3478.24215 -3448.10042 -3428.90841 -3407.80448 -3372.32297 -3352.22519 -3339.49746 -3327.77662 -3327.87662
-5544.86704 -5544.76704 -5569.14195 -5605.45873 -5645.50419 -5667.23636 -5696.17994 -5729.45371 -5730.46646 -5765.31508 -5767.09762 -5771.51867 -5789.67604 -5780.81959 -5796.05309 -5782.69960 -5778.90355 -5778.70904 -5773.69275 -5778.11463 -5772.37288 -5768.48879 -5773.65726 -5766.01331 -5762.13913 -5769.59902 -5777.65726 -5754.46567 -5741.60875 -5736.85406 -5724.83731 -5696.17301 -5710.60627 -5689.69958 -5676.13836 -5647.42499 -5628.20134 -5612.98138 -5593.12411 -5560.23977 -5530.51700 -5511.75221 -5462.97044 -5416.94695 -5361.07623 -5331.55035 -5223.76270 -5133.27927 -5052.57674 -4986.69009 -4882.00723 -4803.50312 -4757.70473 -4661.48261 -4617.92048 -4579.58953 -4471.31679 -4138.13535 -3593.04087 -2559.14748 -1998.88147 -1739.88842 -1339.94332 -883.22845 -679.46435 -519.58967 -427.32910 -321.70716 -286.23820 -246.77521 -208.48249 -138.61060 -74.77066 -58.96272 -45.35194 -24.59193 4.85022 12.62130 22.88639 28.39940 34.32609 71.86246 95.57270 98.13876 119.41852 154.74257 277.73753 514.66811 690.17540 1116.97765 1596.61577 1525.24322 1659.96239 1548.08113 1407.59335 1661.80142 1453.26530 795.12038 668.54555 -245.67947 -1174.58228 -1233.51223 -1299.15474 -2490.68590 -2705.87105 -3312.89976 -3260.64061 -3054.58171 -3000.57589 -2969.97822 -2971.33940 -2976.03362 -2998.57565 -3019.50071 -3075.88172 -3133.50928 -3174.86364 -3290.24881 -3362.03211 -3400.82561 -3464.50989 -3515.54098 -3545.68386 -3562.68470 -3576.69062 -3584.46702 -3588.30481 -3580.94861 -3565.85852 -3555.04279 -3537.47875 -3520.09889 -3501.57970 -3468.60493 -3452.62912 -3429.25888 -3410.00433 -3384.45608 -3361.14706 -3344.59375 -3331.32004 -3319.70797 -3319.80797
-5614.77548 -5614.67548 -5639.11018 -5684.77123 -5702.33832 -5726.96384 -5786.54761 -5802.37044 -5813.80830 -5828.52195 -5852.38954 -5852.70323 -5839.94535 -5852.11456 -5844.07052 -5845.63007 -5839.67820 -5832.18339 -5845.64367 -5838.01887 -5830.72580 -5809.05042 -5809.83426 -5806.80014 -5807.95477 -5812.49809 -5804.97715 -5805.96677 -5792.45871 -5786.87062 -5777.96727 -5772.63910 -5747.53477 -5737.77368 -5743.42263 -5707.34519 -5704.24947 -5654.06320 -5655.28381 -5628.89378 -5588.57558 -5555.41239 -5526.63127 -5482.04677 -5440.27688 -5390.81919 -5298.11339 -5198.27230 -5111.28374 -5039.97242 -4968.08932 -4879.58297 -4756.65333 -4664.82145 -4590.95968 -4538.57003 -4365.64979 -4021.76757 -3566.43343 -2490.32853 -2100.05243 -1613.38878 -1325.39170 -968.99469 -793.21440 -610.06191 -509.47133 -320.57500 -296.39521 -227.71290 -172.22393 -84.53690 -62.02285 -56.72387 -23.90967 20.40976 41.79177 55.01702 47.89574 65.12994 39.36572 105.02507 103.17413 174.72917 318.86156 364.51576 472.94163 904.13923 1312.82899 1595.51581 1844.80097 1907.22881 1616.31320 1405.63420 1048.30684 714.78925 758.57416 371.47777 -140.61847 -684.64502 -2295.40874 -3076.18196 -3607.60876 -3604.05055 -3513.24863 -3278.42392 -3123.87641 -3061.21701 -3009.88926 -2990.59169 -2984.89820 -3004.67528 -3026.06137 -3089.10781 -3126.51334 -3190.59459 -3264.84668 -3334.67922 -3384.54041 -3435.18577 -3494.01146 -3535.95794 -3566.25414 -3578.60245 -3587.83938 -3589.37553 -3586.47452 -3572.30115 -3561.96910 -3536.68898 -3524.40617 -3510.84971 -3477.64126 -3449.18055 -3434.11082 -3411.37391 -3393.51447 -3372.36088 -3344.64454 -3334.57135 -3325.18249 -3311.34906 -3311.44906
-5683.80892 -5683.70892 -5708.28149 -5754.16192 -5786.34821 -5813.98544 -5826.43163 -5857.21014 -5863.38114 -5897.54900 -5892.04077 -5899.11266 -5897.74501 -5900.57929 -5892.63340 -5880.51368 -5893.89615 -5884.73550 -5882.31402 -5874.19587 -5865.91508 -5864.11372 -5858.62735 -5849.75342 -5844.79494 -5842.49021 -5843.55228 -5829.83543 -5821.48137 -5811.48315 -5798.01095 -5799.78279 -5789.61327 -5762.73013 -5762.50746 -5757.85644 -5736.44005 -5727.76500 -5703.62872 -5685.66865 -5660.48996 -5623.20983 -5603.56258 -5553.56545 -5513.54731 -5444.92147 -5362.46755 -5264.56191 -5162.98606 -5089.27267 -4990.13325 -4863.97564 -4797.86214 -4699.86191 -4520.01896 -4439.93765 -4318.31231 -4047.95418 -3406.75181 -2675.12511 -2369.63407 -1707.33779 -1413.51432 -1153.74664 -938.58345 -718.78657 -514.17481 -399.91624 -301.55277 -243.26707 -159.66074 -67.13320 -55.45845 -28.04340 23.68124 54.46959 85.86333 85.95913 129.44085 131.07869 104.33171 375.58833 742.99501 542.33654 606.95209 778.05019 1027.87769 1215.63045 1426.80612 1512.48158 1595.23723 1246.06236 1001.95253 847.65850 754.56035 191.55750 235.91205 97.36504 -712.33607 -1470.66173 -3047.38589 -3616.79176 -3538.51682 -3411.63561 -3313.12699 -3190.81481 -3082.36414 -3045.81751 -3025.49626 -3018.15170 -3025.65750 -3043.01510 -3084.65070 -3123.05008 -3172.21299 -3225.77517 -3302.06653 -3380.96319 -3433.57791 -3504.71637 -3542.64008 -3558.44549 -3583.18130 -3590.37742 -3592.26439 -3585.07934 -3574.48475 -3558.98698 -3532.44022 -3514.36259 -3490.30730 -3466.82176 -3451.20232 -3427.81658 -3405.43108 -3389.60115 -3366.45792 -3353.24842 -3338.73620 -3326.02061 -3316.21358 -3304.52035 -3304.62035
-5749.21303 -5749.11303 -5781.84198 -5803.62069 -5840.99193 -5865.65580 -5906.96774 -5903.38930 -5925.01867 -5930.02083 -5932.09377 -5931.16391 -5930.03224 -5929.96144 -5920.09120 -5921.53646 -5910.12523 -5904.57412 -5901.34861 -5894.81944 -5887.23893 -5878.82967 -5873.33343 -5868.54163 -5858.30798 -5856.08514 -5848.78326 -5842.30177 -5833.91492 -5825.61044 -5819.18388 -5810.94875 -5803.77355 -5796.44727 -5786.58308 -5772.26428 -5760.58514 -5746.27514 -5738.95032 -5720.79701 -5686.47287 -5671.25252 -5635.57197 -5587.41167 -5547.90279 -5457.16953 -5400.34578 -5318.76698 -5240.76147 -5032.97055 -4784.35468 -4431.47124 -4247.11659 -4309.52048 -4107.67655 -4362.08564 -4250.64325 -4073.57921 -3633.80680 -3281.56545 -2465.29221 -2222.95654 -1365.23507 -1088.67041 -920.35268 -662.00616 -606.28317 -484.33702 -328.31786 -204.23733 -191.50524 -55.60022 -52.64762 12.34259 162.97115 257.51575 320.54290 280.88514 272.00799 451.86560 404.50191 693.23721 984.77629 1119.91842 1061.66376 821.03758 731.65761 922.30778 1083.98085 861.30371 905.28008 643.29473 637.97091 461.54787 284.50011 -55.63039 -199.63321 -492.79904 -1444.77949 -2255.88503 -3171.90877 -3542.84910 -3412.08683 -3266.76908 -3170.15966 -3140.90411 -3080.96025 -3065.51560 -3067.43602 -3059.18551 -3057.24515 -3096.99249 -3116.37215 -3161.75000 -3244.40871 -3292.63857 -3358.36968 -3405.20132 -3473.44774 -3515.13074 -3554.60300 -3580.10663 -3593.43968 -3593.37284 -3584.50219 -3569.73435 -3563.49799 -3533.85811 -3511.48244 -3494.43468 -3463.66687 -3455.27121 -3419.91728 -3401.40866 -3389.67386 -3366.69489 -3353.72976 -3338.04694 -3328.08279 -3316.22286 -3304.83385 -3298.53095 -3298.63095
-5804.76490 -5804.66490 -5831.39812 -5848.77262 -5872.58363 -5893.49232 -5921.41933 -5929.19752 -5943.88225 -5950.39347 -5949.57490 -5949.13453 -5947.70490 -5939.68143 -5934.88647 -5928.17370 -5920.48470 -5914.86864 -5907.99576 -5894.89357 -5890.65052 -5883.24680 -5875.23327 -5866.20469 -5862.54815 -5851.52655 -5840.79449 -5834.15497 -5821.58695 -5819.23376 -5811.62180 -5809.49869 -5803.89974 -5795.30896 -5786.58370 -5778.95543 -5772.32556 -5764.24367 -5751.06054 -5738.77570 -5722.79535 -5693.70379 -5665.82581 -5632.38638 -5573.47827 -5520.94023 -5455.95061 -5359.20593 -5300.91039 -4751.57039 -4116.57523 -3451.35108 -2783.36574 -2842.66226 -2818.58503 -3668.00383 -4085.76393 -3856.92906 -3693.42719 -3232.24386 -2847.75548 -2448.25549 -1567.01821 -1210.26068 -928.00485 -832.25605 -669.37416 -459.35252 -271.42290 -145.19107 -85.13571 117.68872 364.61140 440.24364 608.92638 691.12328 746.97610 889.39652 811.11129 928.85280 1126.49386 931.12292 919.43013 983.94854 766.28039 492.19273 333.95901 475.48656 484.92280 530.10721 601.71943 396.96888 262.44159 230.37642 -11.17404 -1078.46413 -1718.93448 -1171.09828 -1881.94109 -3066.23484 -3511.62063 -3418.75119 -3316.22808 -3203.68191 -3183.94736 -3158.29695 -3097.86730 -3081.31603 -3085.22102 -3114.52623 -3111.11412 -3153.39803 -3192.57832 -3209.02167 -3280.39361 -3339.36148 -3402.84764 -3446.44012 -3501.92019 -3531.01750 -3572.95430 -3590.45536 -3594.73071 -3587.95019 -3575.42455 -3557.13552 -3537.23518 -3506.16633 -3484.24435 -3459.72551 -3447.06803 -3415.24148 -3397.97195 -3381.06035 -3363.96336 -3355.16667 -3340.17875 -3327.70006 -3315.71594 -3304.97007 -3299.50358 -3294.17171 -3294.27171
-5851.02074 -5850.92074 -5873.97830 -5894.89790 -5916.50353 -5932.39139 -5941.99208 -5947.54966 -5953.80528 -5956.14257 -5956.53695 -5949.16348 -5944.54017 -5936.88987 -5926.38075 -5921.17260 -5915.76753 -5906.55629 -5896.60522 -5887.61550 -5877.16555 -5869.57170 -5860.98191 -5851.12446 -5835.95612 -5826.74130 -5817.69642 -5810.00877 -5805.88580 -5794.25436 -5786.45032 -5782.48362 -5786.93968 -5780.72371 -5780.00718 -5774.25922 -5771.88663 -5765.21069 -5760.68498 -5743.34768 -5727.15151 -5704.39978 -5672.13841 -5639.30371 -5601.20748 -5574.84189 -5513.38583 -5398.19923 -5183.46377 -4376.90845 -3336.16132 -2637.63734 -2099.11460 -2004.58976 -2120.41016 -3045.14334 -3379.25384 -3764.40766 -3740.92556 -3543.32396 -3134.06189 -2507.74329 -1683.36666 -1408.60536 -1074.96232 -863.20194 -726.11284 -432.40752 -269.03964 -103.26203 4.33988 150.15078 518.67515 961.53701 1208.45718 1258.18082 1343.21059 1544.34159 1415.27120 1267.61599 1273.18201 1043.83026 670.72006 654.50077 275.20346 272.50912 162.31345 262.96960 219.69333 409.28062 459.80850 304.95646 26.48473 13.37129 -1543.10349 -3198.53928 -3070.71240 -2648.10380 -2964.89712 -3325.82342 -3543.85744 -3446.12733 -3292.51148 -3243.02304 -3199.78231 -3150.84475 -3122.53547 -3106.36562 -3108.46267 -3128.94024 -3177.10531 -3194.48221 -3241.71865 -3273.97554 -3330.38406 -3367.67487 -3427.95567 -3469.48194 -3522.73552 -3551.15470 -3582.40866 -3590.77271 -3586.43078 -3573.31337 -3566.02073 -3545.05999 -3514.12935 -3483.46008 -3466.94845 -3427.53003 -3414.53345 -3396.05191 -3376.06090 -3361.71810 -3344.52955 -3333.86236 -3323.23177 -3314.13739 -3308.72444 -3298.57713 -3295.59795 -3291.56191 -3291.66191
-5882.76086 -5882.66086 -5896.15550 -5915.64596 -5928.08190 -5940.52637 -5947.10047 -5949.29132 -5951.67224 -5940.00477 -5942.55359 -5940.78783 -5930.36337 -5924.18273 -5910.06877 -5903.37163 -5893.47146 -5881.78295 -5876.32942 -5861.01516 -5858.34642 -5840.07307 -5839.39491 -5825.86704 -5814.50194 -5802.94121 -5793.83678 -5784.54445 -5780.47477 -5772.79798 -5766.68198 -5766.19493 -5762.36674 -5763.72941 -5761.01795 -5760.88962 -5758.07579 -5757.50844 -5751.79640 -5742.56006 -5726.11329 -5709.21728 -5680.40444 -5646.29920 -5619.56078 -5565.52509 -5506.61163 -5333.22127 -4704.91150 -3842.10694 -2733.75547 -2156.02940 -1674.53978 -1582.65267 -1753.28399 -2181.47220 -3171.83216 -3175.46121 -3275.31247 -2919.17499 -2553.06193 -2269.52443 -1781.81882 -1267.64352 -989.86715 -850.97993 -607.54604 -425.85114 -234.96069 -52.10869 75.85688 323.88704 689.69719 901.82310 1125.90442 1186.56359 1149.28194 1295.47977 985.97867 952.65576 688.72316 536.72577 297.59866 129.78319 102.86935 184.62457 77.13443 90.51339 73.48039 160.18976 -600.66375 -291.38526 -690.72573 -960.65384 -1604.82355 -2855.97596 -3535.08765 -3354.98205 -3597.75060 -3597.08276 -3536.54128 -3423.27622 -3336.27638 -3253.24021 -3218.07456 -3173.84738 -3138.37637 -3122.69133 -3138.32264 -3188.21219 -3240.83176 -3275.36953 -3277.39053 -3292.00774 -3352.14118 -3409.63058 -3454.33273 -3513.66469 -3546.54559 -3571.83212 -3583.19351 -3581.82650 -3575.39326 -3559.42285 -3541.76791 -3514.67113 -3487.69865 -3451.19709 -3440.26918 -3411.71992 -3390.09861 -3372.89895 -3356.55964 -3347.03026 -3327.68655 -3323.56551 -3310.26823 -3305.21563 -3302.33153 -3295.91701 -3292.90485 -3290.39510 -3290.49510
-5901.78245 -5901.68245 -5914.15118 -5922.25301 -5933.95694 -5939.41292 -5940.56760 -5939.22677 -5930.90436 -5920.38003 -5913.72926 -5910.37949 -5913.99757 -5898.47988 -5887.98783 -5884.93076 -5871.70381 -5860.17346 -5850.57217 -5840.99050 -5834.22298 -5814.69055 -5801.50320 -5790.21513 -5790.76192 -5772.99530 -5763.16147 -5750.34649 -5739.58658 -5736.77512 -5732.41067 -5726.25093 -5732.35024 -5737.90745 -5740.24148 -5738.39759 -5739.52404 -5741.46939 -5735.79614 -5734.72709 -5715.55699 -5697.58489 -5684.36136 -5644.76054 -5570.78690 -5475.92514 -5320.71061 -4967.06016 -4247.91201 -3184.01111 -2499.66730 -1749.77842 -1605.02983 -1519.58517 -1562.57459 -1778.44378 -1967.35961 -2151.12045 -2141.40840 -1970.16454 -1598.39984 -1424.26220 -1151.18076 -984.99575 -871.43518 -675.43778 -556.87101 -334.22095 -197.96491 -37.33234 12.87872 74.19599 299.26651 470.85144 329.53556 637.46670 451.16554 451.87750 585.67290 465.20888 115.13348 256.12805 100.92961 46.64001 19.35739 69.12706 50.38367 -82.01287 -2.79112 -1034.10758 -1675.58481 -1730.78771 -2687.98242 -2593.21894 -2067.05801 -3449.60650 -3661.40754 -3685.55208 -3655.98258 -3612.49453 -3508.38113 -3422.36033 -3335.58670 -3257.87587 -3228.79306 -3195.47373 -3161.16503 -3149.86908 -3179.35944 -3199.83868 -3264.89803 -3320.82781 -3326.55413 -3359.56373 -3398.00017 -3428.81037 -3482.59987 -3528.88309 -3556.44181 -3576.85289 -3579.88708 -3571.79846 -3560.20046 -3544.59907 -3521.12869 -3485.85220 -3469.76527 -3435.71805 -3407.09144 -3395.60689 -3368.02226 -3351.65216 -3343.45904 -3324.36979 -3317.67466 -3310.35566 -3304.29233 -3298.89256 -3295.10364 -3292.43604 -3291.90637 -3291.00644 -3291.10644
-5910.52422 -5910.42422 -5917.63446 -5923.01152 -5927.17427 -5928.80379 -5926.31353 -5921.20056 -5916.22226 -5907.14671 -5900.81494 -5894.07659 -5881.74877 -5875.17944 -5863.87719 -5852.91233 -5837.84747 -5836.38576 -5817.18065 -5807.23782 -5795.94746 -5790.66836 -5774.79554 -5765.61183 -5749.07440 -5736.67421 -5726.55410 -5716.76697 -5706.71932 -5703.20240 -5707.69023 -5707.66608 -5708.69346 -5715.17382 -5720.65940 -5720.92926 -5727.11788 -5720.31538 -5725.07247 -5724.94207 -5716.86826 -5691.58672 -5685.84716 -5627.44217 -5409.28529 -5077.99242 -4827.37958 -3944.71710 -3461.46571 -2486.94148 -1978.01232 -1679.41624 -1533.79729 -1469.65623 -1439.43210 -1486.37779 -1545.23954 -1488.73081 -1406.92182 -1200.46751 -1018.23025 -942.55639 -916.43267 -754.93710 -592.56123 -408.62904 -307.41570 -249.21004 -148.13565 -86.75289 -56.21137 6.59502 31.36650 28.83483 74.22193 152.11793 180.67570 122.10167 197.11889 70.94421 25.25449 40.00111 -43.56416 -97.33629 -23.65108 -118.06112 -142.18899 -202.78649 -913.95858 -2379.29689 -3537.77667 -3637.06963 -3239.67803 -3363.68146 -3015.97794 -3650.85717 -3694.18015 -3679.15123 -3632.85028 -3544.41026 -3495.83975 -3421.13383 -3336.89599 -3274.48973 -3234.30180 -3203.87950 -3182.63399 -3190.32954 -3212.29328 -3272.49622 -3343.26195 -3360.12499 -3358.40764 -3383.93400 -3420.02035 -3471.61601 -3501.40742 -3535.55018 -3562.30220 -3575.10909 -3572.72363 -3559.19402 -3539.47924 -3524.18609 -3500.25729 -3467.00049 -3440.20162 -3417.82788 -3386.97195 -3376.61310 -3352.55303 -3339.88453 -3328.31882 -3320.45019 -3311.49357 -3303.64066 -3298.95984 -3295.51709 -3293.88178 -3292.80298 -3292.44863 -3292.98958 -3293.08958
-5908.22544 -5908.12544 -5911.43223 -5915.94387 -5914.38317 -5910.01672 -5909.30797 -5904.64970 -5897.70262 -5889.12607 -5872.38747 -5870.08997 -5859.12112 -5855.82300 -5838.20931 -5828.77265 -5817.21431 -5808.13967 -5794.24486 -5785.35390 -5780.28181 -5759.07552 -5747.19611 -5744.10865 -5726.07939 -5713.55552 -5694.80228 -5692.80202 -5682.12162 -5671.29443 -5673.22882 -5662.18136 -5681.73422 -5687.31622 -5697.96879 -5708.21082 -5713.25920 -5710.44913 -5716.45645 -5709.67880 -5705.32142 -5678.87168 -5637.19182 -5529.66882 -4644.90978 -4272.80248 -3635.20958 -2976.73548 -2381.31180 -2009.62649 -1692.03392 -1600.75494 -1484.32166 -1411.57988 -1398.78005 -1396.69831 -1377.74091 -1335.89350 -1211.19647 -1091.11472 -985.52120 -912.82554 -803.92074 -549.64205 -390.25473 -259.59881 -122.50355 -81.10021 -108.30026 -97.46176 -97.65195 -77.27272 -56.11824 -56.80600 -23.66468 35.46525 57.70146 15.86871 -24.56724 -32.39582 -40.39396 -89.58690 -264.53190 -357.99243 -358.17000 -339.57995 -354.74390 -1085.94361 -1930.01044 -2804.77314 -3829.33066 -3910.46450 -3757.75646 -3689.09456 -3656.01247 -3649.19071 -3689.00654 -3654.31672 -3612.47686 -3522.99724 -3475.35312 -3409.11968 -3344.37044 -3286.62771 -3249.73984 -3218.28518 -3207.53527 -3221.54142 -3262.48444 -3322.42698 -3406.45937 -3428.82045 -3406.83132 -3413.68155 -3450.43761 -3480.21789 -3513.37601 -3541.99253 -3556.38463 -3561.09539 -3554.31543 -3535.26416 -3529.85198 -3512.87835 -3470.63062 -3436.23801 -3421.42663 -3392.30783 -3371.10354 -3356.65703 -3339.06995 -3328.20608 -3320.37852 -3308.67056 -3303.49021 -3299.41542 -3295.98547 -3293.85335 -3293.57658 -3293.83752 -3295.10031 -3296.17832 -3296.27832
-5900.65241 -5900.55241 -5899.88119 -5898.26982 -5895.91383 -5895.97642 -5891.14996 -5881.65933 -5873.27976 -5869.29525 -5857.36389 -5849.66617 -5836.32668 -5822.15600 -5811.18701 -5801.49707 -5785.87241 -5783.56270 -5768.46375 -5757.89871 -5749.58066 -5740.68446 -5736.71897 -5710.13794 -5697.32720 -5686.66119 -5672.05238 -5658.72560 -5647.81480 -5651.03007 -5645.80626 -5645.86131 -5648.60096 -5660.04102 -5675.99082 -5688.77437 -5705.53681 -5708.81864 -5711.31923 -5707.68498 -5704.15256 -5685.53344 -5501.39091 -5174.67253 -3879.94152 -3468.77471 -3093.09496 -2337.38306 -1945.23872 -1781.39242 -1577.03711 -1483.03611 -1391.22439 -1429.06248 -1402.68034 -1550.13982 -1497.89451 -1291.70430 -1118.14233 -1079.10168 -1009.66355 -963.92488 -913.68922 -493.11650 -228.42793 -71.90831 284.99883 407.02634 150.54686 -16.35504 -102.93638 -125.81541 -118.15909 -88.91634 -83.09708 -5.42938 34.04747 -96.53493 -162.49438 -118.47707 -283.75399 -698.59321 -1284.19404 -2504.64307 -2123.84963 -1953.52756 -2075.55109 -2812.58380 -3570.46160 -3664.47006 -3985.57084 -3913.86186 -3847.63169 -3814.44658 -3767.61294 -3734.90948 -3679.74111 -3657.08060 -3572.20725 -3507.47705 -3458.54103 -3419.37439 -3342.68212 -3291.32924 -3266.51333 -3232.62252 -3232.43186 -3254.82959 -3302.96711 -3385.52300 -3452.26384 -3451.84341 -3436.93152 -3447.81844 -3463.06348 -3496.99362 -3517.17215 -3534.79462 -3550.55542 -3543.76577 -3533.11256 -3518.83719 -3498.35949 -3481.07063 -3456.07103 -3427.85300 -3398.84007 -3373.78585 -3359.07981 -3347.81159 -3327.22563 -3319.32898 -3311.35225 -3305.75214 -3300.94053 -3297.11057 -3295.42614 -3294.49785 -3295.01254 -3296.78954 -3298.47167 -3300.45825 -3300.55825
