-5014.99595 -5014.89595 -5016.47972 -5016.47226 -5019.65273 -5017.57834 -5016.34344 -5018.40179 -5014.19108 -5013.70994 -5015.80088 -5019.07007 -5015.89230 -5013.52921 -5009.58745 -5000.07048 -4972.16285 -4669.81198 -4257.84229 -3452.64061 -2181.00211 -1478.77061 -1068.47046 -996.96228 -891.37772 -673.23851 -521.47800 -487.45469 -421.29514 -401.13487 -305.82310 -261.66788 -239.63261 -190.57715 -150.16617 -113.12949 -91.92881 -72.12190 -58.55930 -33.56937 -33.55560 -29.26031 -27.63155 -3.80984 2.38245 23.08503 29.19753 35.21667 39.40542 64.26315 71.56595 85.48706 110.83953 134.03262 168.61884 184.27345 201.58943 242.31343 274.17598 321.34309 344.33017 421.03707 481.60338 562.03287 584.66271 560.60957 550.17092 530.35235 508.17851 453.49163 429.37932 377.74460 361.60095 339.21585 346.30459 355.50883 367.89995 386.26621 406.20987 435.33435 463.98161 485.71885 516.21231 540.36325 566.16247 593.65600 602.01325 607.65241 597.31035 569.64614 554.24605 537.29631 512.69893 457.48454 403.94755 396.42000 382.87221 352.62220 289.06890 249.23256 229.02343 178.70116 124.87219 107.88652 69.99323 23.21718 -21.11087 -74.98572 -112.65541 -169.95388 -303.74020 -857.80393 -1762.63649 -3501.43368 -4396.70357 -4586.44698 -4040.67172 -2864.23551 -564.41420 -152.79149 -340.24190 -1026.14411 -1753.58173 -2256.19468 -2858.06442 -3042.78442 -3192.39757 -3205.52977 -3222.90941 -3236.81028 -3238.73525 -3241.90684 -3249.84869 -3257.33601 -3262.59869 -3271.68257 -3276.29973 -3283.03414 -3291.28441 -3297.74456 -3303.54489 -3313.20784 -3313.30784
-5027.88112 -5027.78112 -5027.81351 -5028.60672 -5029.79382 -5030.77013 -5031.67289 -5027.86824 -5032.62201 -5029.97251 -5025.33806 -5025.51751 -5021.68054 -5021.43852 -5019.50639 -4997.91953 -4916.14408 -4652.37822 -3700.61377 -2794.14177 -2013.33830 -1303.12891 -1112.45456 -1040.73875 -990.93886 -834.37552 -680.80162 -515.98362 -456.52376 -435.56564 -354.43767 -335.51875 -288.61662 -242.87738 -170.36438 -146.40598 -110.76922 -90.65229 -74.75556 -67.70254 -68.82033 -58.44042 -39.63877 -25.95121 -29.15053 -6.48005 0.27844 6.92011 26.60123 44.15060 58.63418 70.27913 111.60275 117.90907 151.30178 173.63175 194.43559 224.72404 266.52273 311.05364 323.87575 387.10975 446.15967 486.82716 554.05027 529.75988 527.81550 554.17325 530.80474 498.76941 436.54683 372.52463 351.97637 336.39885 336.98076 349.10155 368.23628 382.66303 400.48194 426.45477 458.74664 484.98024 498.87785 528.21886 558.14884 576.19432 585.82111 589.13135 561.67958 535.49497 529.87443 503.46590 489.83584 470.12918 381.40719 366.55114 335.25305 305.41409 274.21594 237.29028 185.56133 147.19189 113.46368 80.76843 50.71384 -19.65471 -60.47869 -76.64257 -114.43749 -182.56045 -327.09862 -983.75359 -1584.71452 -2707.81654 -4762.75858 -4767.65537 -4386.91374 -2831.31052 -1410.90737 -469.78323 -633.94800 -1367.05498 -1898.53251 -2551.63035 -3002.03623 -3184.91230 -3198.56328 -3221.96453 -3229.17884 -3234.48595 -3236.62805 -3245.36110 -3251.52999 -3257.10218 -3264.89397 -3272.00711 -3276.29824 -3284.33806 -3290.42290 -3296.89363 -3303.84028 -3314.27963 -3314.37963
-5037.87132 -5037.77132 -5037.34575 -5039.09256 -5038.15829 -5038.37507 -5037.73475 -5037.03604 -5036.66324 -5035.30159 -5034.76834 -5031.95698 -5030.43252 -5028.68435 -5025.50081 -5003.54050 -4888.72002 -4453.63841 -3467.81795 -2659.65655 -1787.77762 -1343.68215 -1199.72883 -1069.23472 -1000.33610 -851.27910 -781.75121 -700.29126 -540.07491 -449.15451 -406.77961 -365.71399 -328.27086 -270.03819 -212.92812 -146.74250 -139.47917 -122.03816 -106.84592 -116.54434 -111.84359 -94.88352 -67.92543 -41.01317 -44.61444 -24.61947 -14.42784 0.64249 16.91603 22.91768 45.00947 58.99522 89.78230 119.72180 144.31998 160.09057 199.66372 226.32856 244.16283 288.08760 316.86648 343.05667 408.17073 425.31366 467.11081 477.58962 455.62306 438.42633 467.46917 437.45942 404.33620 367.78052 343.81102 337.08459 336.66176 340.59073 358.99361 375.08106 389.26656 417.49192 438.78170 479.30345 488.54956 521.45103 545.45877 550.18928 552.65650 543.62141 523.19176 519.22699 502.57067 478.98445 448.69791 430.07842 389.12549 371.72296 313.75836 290.56079 256.82818 231.40540 192.00763 137.30905 115.29751 66.47207 18.22346 -50.97749 -78.16473 -111.01453 -163.15036 -186.57984 -433.50252 -891.46121 -1616.10437 -3742.96230 -5042.17197 -4979.13999 -4762.64887 -4032.47849 -2009.10403 -1470.12425 -1664.89806 -1843.22112 -2517.81382 -2620.36776 -3023.03886 -3187.54807 -3200.63628 -3221.61835 -3230.21057 -3234.22941 -3239.28111 -3243.81147 -3255.24456 -3260.18775 -3266.50384 -3271.55903 -3277.84031 -3286.44957 -3290.93523 -3297.51505 -3305.07105 -3315.30020 -3315.40020
-5046.36469 -5046.26469 -5046.26789 -5045.70604 -5046.75151 -5045.56520 -5047.27002 -5045.78039 -5044.99318 -5044.41346 -5040.97126 -5041.59700 -5037.70971 -5036.22260 -5034.74475 -5009.66639 -4860.32789 -4543.81947 -3440.53971 -2899.38932 -1920.97497 -1505.70733 -1210.81366 -1088.83680 -1006.30865 -963.51574 -881.21642 -814.43837 -722.59207 -621.34657 -517.74610 -441.54556 -338.45079 -295.71601 -234.49531 -196.34243 -168.41466 -157.93858 -149.81178 -140.27557 -128.95245 -127.51523 -115.99267 -79.97269 -60.68548 -38.70700 -27.97498 -13.47231 1.50010 25.91015 39.18707 62.49939 83.61787 111.19176 132.97138 159.82555 187.79995 223.23522 235.87279 261.33586 309.82816 327.44345 348.76620 389.76184 403.45664 393.09814 402.42641 415.79950 405.18734 393.88075 376.89633 362.51122 337.06849 332.44628 334.63625 338.25022 343.67110 365.38506 386.90413 409.11103 432.15759 453.85291 487.13207 511.09409 535.88523 539.55090 537.28511 520.09012 477.31886 497.63704 458.41965 439.31152 403.16427 385.10780 352.44985 325.16082 293.09870 276.57369 239.30299 193.71055 167.28273 121.07536 84.22683 56.13053 0.47717 -50.05825 -79.41768 -142.52701 -181.81739 -302.23510 -537.26992 -1350.80367 -2575.70487 -4720.03429 -5089.41156 -4975.22578 -4829.87984 -4448.47976 -3973.69671 -2806.37098 -2839.73266 -2805.58688 -2697.75802 -2998.39496 -3110.22966 -3192.30687 -3210.50292 -3221.99113 -3228.34083 -3233.45971 -3241.85639 -3247.61858 -3255.33290 -3259.24202 -3267.18395 -3273.02639 -3279.74904 -3287.30390 -3291.34701 -3296.46050 -3306.20703 -3316.28329 -3316.38329
-5054.35572 -5054.25572 -5054.80837 -5053.28140 -5056.04854 -5054.38275 -5053.71014 -5052.95806 -5050.40892 -5050.35922 -5049.97765 -5048.64001 -5046.03305 -5044.30803 -5042.04823 -5028.36963 -4936.63619 -4818.21484 -4289.16711 -3365.67933 -2254.88387 -1658.58596 -1359.49187 -1167.96362 -1115.22667 -1033.88111 -959.52757 -937.82735 -850.26601 -722.70645 -593.93166 -481.58936 -406.24063 -324.47509 -295.72152 -243.16223 -221.04179 -216.00323 -201.04581 -167.04155 -152.92636 -139.58623 -119.17662 -101.52044 -81.73782 -64.51668 -43.22055 -19.54843 -8.07779 8.76774 35.85031 48.61874 73.54132 103.91094 129.30795 158.62173 196.51149 223.48293 232.46618 275.55011 309.29161 316.66253 334.88591 366.27893 367.30633 346.64861 344.16862 347.84197 361.76297 355.50930 343.38333 326.49800 310.54060 316.83580 325.90608 322.09087 329.83270 354.33652 377.21045 392.45879 424.23929 449.05902 463.69423 478.99921 512.20565 524.03139 526.50739 494.29998 468.02499 462.23268 440.69796 413.01945 387.05317 358.88132 327.93233 301.03662 271.80725 234.12413 206.71457 153.49480 138.40340 121.92803 72.43739 48.57462 -5.86947 -45.26548 -96.73355 -174.40381 -278.32101 -445.81966 -932.18983 -1425.69591 -3639.70939 -4706.65197 -4983.52050 -4906.76674 -4858.85795 -4844.39039 -4640.34131 -4029.50278 -3327.76476 -3224.82096 -3145.88124 -3138.36389 -3182.89112 -3199.05281 -3212.29057 -3223.36885 -3229.85354 -3236.12257 -3244.02668 -3250.90816 -3254.91071 -3260.72736 -3267.98868 -3271.58713 -3278.38712 -3285.56781 -3292.38448 -3298.07648 -3307.81129 -3317.07134 -3317.17134
-5062.20474 -5062.10474 -5062.77520 -5062.25193 -5061.82913 -5060.66664 -5060.21219 -5059.29338 -5062.59367 -5056.71159 -5055.38501 -5054.74472 -5053.48484 -5052.17473 -5048.10729 -5046.09823 -5005.55483 -4909.72807 -4603.49433 -4219.04817 -3226.53583 -2639.22116 -2044.54691 -1308.08596 -1205.03395 -1087.43142 -984.45652 -969.94103 -956.10831 -873.95724 -759.11903 -589.88994 -468.82480 -388.58579 -347.33091 -351.03181 -290.82888 -277.07730 -225.95908 -188.92756 -178.64342 -166.94468 -144.47999 -121.30963 -98.12301 -85.70693 -59.03313 -24.81628 -15.40450 12.94798 28.79424 42.67384 76.62608 92.47612 119.43801 161.15918 184.61174 223.88831 267.84338 293.56976 307.95605 304.65438 307.22296 317.64109 327.88644 323.15602 309.61250 306.64968 315.45264 328.25837 321.71954 309.25063 295.85548 292.26874 296.09078 306.92021 323.93257 340.39229 369.81034 384.80336 405.17054 430.33015 452.98065 476.14652 501.01601 504.84175 504.71482 493.64759 458.97522 426.05842 408.18851 393.92446 370.89137 325.75174 295.52223 273.08359 236.60145 200.16221 162.43439 141.08029 114.55512 89.60512 43.75488 8.26950 -48.27667 -79.88690 -126.20426 -192.51452 -470.70866 -632.66437 -1092.66223 -1685.42619 -4055.65369 -4810.03276 -4898.29484 -4902.81552 -4933.21412 -4944.38198 -4870.57523 -4313.07569 -3864.17556 -3523.61908 -3248.58199 -3176.45430 -3187.11399 -3202.73171 -3213.11011 -3222.00118 -3232.57388 -3239.79445 -3246.41563 -3252.91347 -3256.72559 -3261.27672 -3267.28072 -3271.64877 -3277.79234 -3285.63507 -3292.83156 -3298.16944 -3308.28124 -3318.02799 -3318.12799
-5069.91389 -5069.81389 -5069.99804 -5070.28782 -5070.74862 -5069.32122 -5068.97023 -5067.29706 -5067.11512 -5065.42241 -5063.22882 -5063.57360 -5057.96389 -5057.67467 -5056.53215 -5052.58038 -5036.39650 -5008.72697 -4954.67178 -4735.17409 -4062.01420 -3172.50685 -2352.15485 -1718.61720 -1357.77345 -1118.15285 -1074.65570 -1040.33702 -982.23591 -944.22690 -864.43626 -717.91150 -671.34144 -506.97140 -424.42690 -387.31196 -360.08690 -297.27400 -246.67089 -232.04166 -217.59141 -185.71732 -165.16865 -141.47392 -113.44584 -94.34550 -75.56290 -30.83165 -20.46017 1.60064 25.75771 36.49293 69.93363 97.48195 136.79149 178.48488 203.39317 262.75613 305.37737 314.25600 306.59013 301.17941 292.43425 289.59156 287.69825 289.05101 292.10412 297.96851 292.03833 290.13988 289.76602 289.27319 278.86186 281.64900 284.97809 300.27008 319.35693 336.90068 353.28991 377.20086 399.79007 421.98918 433.09247 467.62264 491.90134 496.26299 499.45197 479.82692 423.82006 401.34470 367.10243 354.59600 329.94271 296.78581 253.22761 228.19832 218.40977 183.02660 139.73417 116.01284 90.49083 61.59758 31.64024 -23.03659 -68.24995 -113.58034 -180.51150 -244.76267 -545.55877 -807.44891 -1377.57105 -2592.84104 -4638.37467 -4691.33345 -4771.61538 -4866.27610 -4945.46067 -4983.16288 -4952.21576 -4764.49526 -4086.07523 -3448.11916 -3268.13908 -3203.67036 -3193.87494 -3197.79639 -3208.63605 -3218.70296 -3237.32533 -3244.17856 -3248.69913 -3254.81674 -3258.46486 -3263.22308 -3269.53574 -3273.82517 -3280.70412 -3285.56988 -3290.91345 -3298.65275 -3306.53441 -3319.02091 -3319.12091
-5077.48830 -5077.38830 -5077.51220 -5077.12095 -5076.24776 -5075.27337 -5075.91243 -5075.29081 -5073.42894 -5073.05178 -5072.24685 -5068.85503 -5067.90973 -5066.40022 -5064.33507 -5059.73205 -5052.40344 -5041.54462 -4987.20382 -4769.16428 -4568.11398 -3788.49526 -2750.74134 -1918.58440 -1321.12467 -1187.62082 -1133.12568 -1119.49303 -1108.90088 -1022.56874 -958.59320 -908.43342 -828.12910 -651.68247 -514.82163 -450.16266 -410.32226 -331.44305 -316.28479 -251.55449 -231.11631 -214.08467 -195.89334 -165.25130 -125.44788 -101.75640 -89.53506 -42.63738 -26.04974 6.80121 26.35340 32.91907 66.96459 88.52554 135.51400 202.19615 271.92080 331.25681 330.69135 345.98446 314.54318 293.27988 275.18802 274.79765 272.70114 273.32390 282.43503 286.95230 284.56789 278.30923 267.40018 269.29481 264.48544 269.21890 272.77379 287.21278 313.55392 324.00265 335.17390 359.06652 383.89291 402.41829 430.30581 432.22662 468.56790 486.04558 488.74105 469.58676 446.06279 441.41123 451.87575 384.29686 276.88216 256.02252 230.06856 181.77688 140.83204 136.83954 84.23727 88.29767 64.08976 34.58999 -1.43940 -56.75701 -74.94497 -127.37503 -176.21764 -301.65967 -678.21862 -907.23310 -1378.11110 -3125.29190 -4561.30636 -4693.81656 -4743.33461 -4828.35312 -4949.87117 -4992.96355 -4964.50179 -4719.60557 -3900.95213 -3486.62183 -3255.26150 -3211.59201 -3196.44614 -3190.76667 -3202.56593 -3218.24404 -3235.58239 -3245.38596 -3251.57318 -3256.49042 -3260.53599 -3265.14042 -3269.58665 -3276.04586 -3280.98728 -3285.89540 -3288.47968 -3298.77587 -3307.92364 -3319.84213 -3319.94213
-5084.90995 -5084.80995 -5084.35643 -5085.59385 -5085.87626 -5084.19548 -5082.71171 -5082.50725 -5081.32085 -5079.86613 -5077.21124 -5077.46494 -5075.27779 -5071.64547 -5069.66284 -5067.73896 -5066.16440 -5061.82271 -5050.04762 -4971.93434 -4835.12881 -4060.12081 -2948.77860 -2085.57175 -1479.02385 -1297.44755 -1249.49289 -1219.61096 -1197.45401 -1134.77575 -1110.42263 -1130.86673 -1010.43428 -871.19363 -673.98003 -574.38442 -463.05885 -427.44377 -347.09460 -281.39619 -263.95270 -247.83372 -207.02748 -179.45198 -147.43432 -117.00201 -92.08342 -63.68697 -26.41005 -3.57473 20.64920 38.22344 86.94141 114.31384 164.36618 229.01386 248.32237 374.50963 396.94256 362.23406 309.29228 274.31086 253.39513 254.70808 255.27144 250.89766 253.94036 265.58981 274.44863 256.84600 253.04620 250.53450 257.39984 256.41351 268.82818 276.70732 295.45080 311.91562 324.86195 333.43128 360.19672 382.38698 417.46426 430.63077 453.46562 479.21898 477.38084 466.89417 454.21733 586.35934 659.44138 499.32761 241.53640 222.81747 191.50834 156.15516 128.32093 94.77497 53.40610 49.51466 8.83010 4.24908 -43.56079 -67.06980 -95.56144 -178.49373 -273.60134 -364.52545 -581.48497 -1181.62355 -1873.91593 -3412.89834 -4201.84113 -4644.47488 -4770.44298 -4826.26878 -4894.54884 -4972.67894 -4951.22704 -4776.05982 -3962.96302 -3382.97032 -3228.21294 -3213.79771 -3186.94253 -3186.85451 -3200.33384 -3218.78337 -3237.64553 -3246.11196 -3252.81375 -3257.82908 -3263.75128 -3267.86362 -3270.08131 -3277.29279 -3280.81422 -3284.81248 -3290.63862 -3299.44717 -3307.83870 -3320.82020 -3320.92020
-5092.29598 -5092.19598 -5092.43152 -5090.57364 -5092.37791 -5091.37296 -5091.57950 -5089.66350 -5088.39423 -5087.41037 -5085.07961 -5083.55528 -5080.71531 -5080.40531 -5075.84471 -5072.84401 -5068.82278 -5066.74656 -5060.63443 -5025.73187 -4705.96804 -4205.95245 -3051.19998 -2144.01791 -1483.28996 -1308.40842 -1264.39118 -1252.58003 -1244.81868 -1290.67529 -1230.85430 -1301.15415 -1184.46444 -1001.73880 -821.03623 -680.84694 -556.27003 -534.25411 -375.05588 -348.95724 -314.20554 -285.97508 -230.65289 -206.34971 -161.56479 -129.02319 -100.39906 -75.00676 -57.14682 -11.90124 17.62443 24.79416 84.82666 136.92627 211.17873 277.50829 319.27079 381.71357 378.94361 321.35291 285.65520 255.66042 245.33555 233.11511 235.00519 244.22651 241.04910 238.62279 233.19461 233.29379 239.97252 241.69958 238.83149 243.07161 252.31458 264.92561 271.45694 295.87307 310.29667 318.78853 339.12814 357.94320 378.06026 427.55048 446.25089 465.39793 460.12872 445.90037 412.05199 571.66438 634.75955 348.03868 222.57061 191.28825 173.41295 134.35578 109.85818 83.73777 65.64930 15.53410 -42.15579 -53.90991 -62.49179 -90.16586 -131.06791 -282.76275 -447.38314 -582.53509 -746.00556 -1080.99522 -1703.99475 -2917.65000 -3960.51565 -4346.29533 -4712.43214 -4800.55725 -4875.61202 -4920.99117 -4772.24591 -4398.74435 -3781.56547 -3397.20599 -3244.65626 -3189.21559 -3166.65874 -3183.73268 -3199.72697 -3221.60997 -3241.21099 -3248.75412 -3254.04726 -3259.53085 -3265.01274 -3269.51049 -3272.50903 -3275.59520 -3281.91689 -3284.30108 -3290.79702 -3301.04430 -3310.03937 -3321.55183 -3321.65183
-5099.59817 -5099.49817 -5099.30203 -5098.45445 -5097.52453 -5099.15322 -5096.72144 -5095.78589 -5095.20330 -5092.53605 -5091.07176 -5091.54737 -5088.97688 -5085.06749 -5082.13238 -5081.30276 -5078.40726 -5075.10073 -5063.46561 -5021.57173 -4511.74789 -4120.90668 -2966.59059 -2061.39078 -1637.11044 -1433.67162 -1574.36729 -1494.14499 -1429.46557 -1601.72977 -1442.92374 -1505.57406 -1308.10090 -1132.61806 -980.81044 -894.56234 -746.67006 -655.95665 -540.69623 -402.73457 -355.67120 -311.80697 -253.70795 -233.57888 -190.92595 -155.18013 -128.94851 -90.23647 -66.76934 -17.41327 19.85919 62.09471 103.67346 136.29538 195.14316 278.13498 343.08670 373.97417 326.89051 261.57175 248.23039 240.81754 240.29609 220.94207 208.28194 207.51213 215.17094 217.27266 216.48935 224.01014 220.15195 223.59042 228.16489 224.95679 234.01363 250.66558 264.65597 276.22235 288.88757 299.35634 327.09970 348.97180 368.99795 403.48224 427.49301 455.10055 444.80363 413.09973 381.39707 355.07258 404.33455 212.64449 202.64398 161.84188 142.49929 94.96503 73.87594 57.58980 37.14104 -0.90821 -49.63491 -58.52403 -79.60236 -114.26569 -213.64428 -345.10260 -572.20861 -775.56580 -1008.33786 -1322.26902 -2211.67494 -3015.57716 -3967.74429 -4338.45828 -4580.20995 -4796.76826 -4842.32716 -4873.35399 -4624.87614 -4240.06446 -3749.17880 -3406.10924 -3209.41049 -3161.43514 -3148.89817 -3181.64925 -3203.27595 -3229.45997 -3239.95232 -3248.80060 -3257.56629 -3262.08757 -3267.03502 -3269.38179 -3273.46868 -3276.04539 -3279.86511 -3284.43445 -3289.62446 -3298.50931 -3310.52311 -3322.68812 -3322.78812
-5106.78704 -5106.68704 -5107.08950 -5106.21432 -5106.06955 -5105.33403 -5104.85561 -5102.92168 -5103.27911 -5099.70827 -5098.22954 -5098.71407 -5094.57884 -5091.93703 -5089.65884 -5087.37149 -5084.53565 -5081.03955 -5061.15116 -4937.69333 -4639.60039 -3693.90650 -2786.11897 -2040.14459 -1864.52991 -2046.34853 -1943.03707 -1913.92514 -2167.43127 -2073.00145 -2258.10341 -2392.83874 -2283.01957 -1202.20004 -1096.46966 -960.40898 -812.16911 -734.87332 -592.01416 -481.88994 -426.62784 -310.51466 -271.42942 -229.80576 -207.75731 -171.00306 -122.14545 -95.25562 -72.90984 -21.22254 6.83559 64.44280 142.91041 205.96754 271.66217 288.74179 285.81855 293.19365 287.10350 248.84109 221.47596 220.69108 192.74831 189.57338 194.38170 194.33283 200.06882 199.88577 199.22238 205.58760 199.72501 201.83218 209.96110 210.22009 214.91998 233.44002 233.27311 255.97684 265.22864 275.28945 298.09268 316.66771 358.15949 387.82615 410.24315 448.31920 451.14834 415.11901 392.31904 571.41861 542.10174 178.30745 172.07996 139.19705 107.63324 77.18227 43.40476 16.21262 -5.31888 -39.99722 -63.68840 -87.99507 -111.97308 -174.18013 -348.68849 -436.70408 -764.68433 -896.37536 -1058.52581 -1402.70278 -2593.35012 -3616.15090 -4117.41912 -4521.21533 -4758.74890 -4795.87445 -4834.95344 -4856.39329 -4540.36105 -4167.64915 -3827.88326 -3299.27435 -3197.67416 -3142.84530 -3156.69749 -3177.37520 -3210.58369 -3231.61544 -3239.97259 -3251.19377 -3258.17585 -3262.08291 -3267.53027 -3269.56983 -3273.82021 -3276.41377 -3278.96022 -3283.72235 -3290.28262 -3296.66818 -3309.95206 -3324.00442 -3324.10442
-5113.74180 -5113.64180 -5113.05139 -5112.27360 -5112.30343 -5108.80146 -5109.18565 -5110.25575 -5109.66157 -5106.96068 -5104.83670 -5102.79279 -5101.96720 -5099.96455 -5096.99252 -5093.34061 -5089.49757 -5087.06914 -5072.13346 -5012.73428 -4638.78777 -4000.72916 -3103.82208 -2609.67246 -2542.58522 -2615.64733 -3006.25652 -2872.90159 -2882.11465 -3018.37892 -3389.39767 -3288.00363 -3125.29785 -1863.25335 -1170.24393 -976.35446 -898.21006 -801.05474 -662.88199 -620.33554 -572.72663 -490.08592 -405.83973 -283.57694 -226.24158 -180.57120 -144.19154 -111.59401 -54.16531 -22.84295 33.36000 94.72934 182.80116 258.82379 296.63378 260.12746 197.82753 187.17639 215.59593 209.77874 175.31594 181.62997 182.37081 176.44942 174.99799 177.87015 186.95137 188.48859 194.86127 188.02408 187.57440 196.13298 195.28182 192.71199 199.96908 208.85042 215.25768 229.85538 239.95154 263.46524 272.66919 316.22458 335.24680 374.77332 388.74162 432.87585 460.19639 439.61209 493.54210 623.64958 420.62862 146.32555 119.85675 111.14859 87.78177 41.28050 18.55137 -12.18456 -44.89864 -73.74286 -123.80169 -183.05090 -218.76528 -357.86744 -511.37460 -567.48162 -833.81648 -1096.63272 -1296.21616 -1912.55184 -2739.87271 -3716.65477 -4279.27178 -4585.95805 -4787.83850 -4819.76033 -4855.64805 -4833.06467 -4333.11934 -4015.01555 -3776.17415 -3346.39824 -3162.70805 -3123.94145 -3149.72919 -3178.04423 -3214.26489 -3231.30168 -3241.95369 -3251.67038 -3258.26317 -3263.58294 -3267.61460 -3269.72986 -3273.15641 -3275.42234 -3279.65925 -3281.90512 -3289.67814 -3298.57278 -3309.54818 -3325.44612 -3325.54612
-5120.62767 -5120.52767 -5120.25804 -5121.31412 -5120.59316 -5119.71074 -5117.14732 -5117.51318 -5115.19468 -5115.62460 -5113.29200 -5111.50472 -5108.07517 -5105.79021 -5102.77331 -5100.46351 -5097.26513 -5092.47483 -5084.65332 -5032.50663 -4783.44046 -4419.36769 -3940.62416 -3694.13551 -3653.46849 -3917.15219 -4111.95360 -4286.30856 -4247.69831 -4329.55071 -4170.33977 -4780.92656 -3665.59392 -2407.89597 -1173.69108 -1088.30372 -1022.83950 -854.09343 -767.74870 -785.75119 -803.60666 -649.35385 -511.47254 -347.04120 -246.84593 -221.43567 -159.31917 -125.78918 -101.42079 -35.05870 55.26931 142.58457 250.56282 286.18022 237.70848 167.56449 131.90320 137.43132 140.24511 139.28949 139.98776 143.16551 161.50440 155.08083 157.14862 164.89725 168.07715 177.00039 171.44296 177.39950 177.64869 177.64854 181.20221 183.19083 189.54525 189.28719 197.32938 215.54398 222.33791 246.97719 274.32571 295.00241 321.33616 361.61795 381.85581 440.93983 450.15028 507.71556 605.87910 548.62157 204.84890 128.36624 96.42245 69.90296 43.80519 13.49924 -17.13954 -40.84233 -75.90382 -113.03865 -177.16561 -258.38137 -379.57091 -694.94455 -769.73566 -742.36063 -1003.37789 -1325.14094 -1816.39777 -2910.01465 -3983.01882 -4150.24424 -4529.43739 -4703.07127 -4825.66496 -4858.98217 -4902.21767 -4795.77093 -4499.10391 -4262.92539 -3750.70698 -3228.41731 -3120.00783 -3108.31565 -3159.16453 -3187.20832 -3212.77816 -3234.53346 -3243.95969 -3255.44157 -3261.22176 -3263.68174 -3267.76174 -3270.07371 -3272.77191 -3275.10671 -3278.27739 -3282.10650 -3288.73171 -3298.22737 -3309.62066 -3327.03998 -3327.13998
-5127.46348 -5127.36348 -5126.93163 -5126.12579 -5126.20984 -5127.03081 -5123.50306 -5121.94866 -5122.49053 -5120.47800 -5120.02549 -5116.60845 -5115.05931 -5111.66235 -5109.84775 -5106.40422 -5103.96634 -5100.63699 -5094.98184 -5082.76065 -5007.28084 -4707.66267 -4678.19951 -4582.68366 -4424.25501 -4626.25623 -4682.36950 -4714.17422 -4715.88620 -4781.73531 -5028.21725 -5116.27972 -4388.10246 -2836.64466 -1566.49016 -1295.75100 -1115.47590 -951.90568 -927.67037 -951.80935 -921.74861 -817.00012 -556.37881 -399.20282 -289.27877 -226.52577 -192.01814 -125.97389 -95.03665 -32.00927 11.67308 124.01892 196.34492 225.13118 155.19758 104.15840 107.44335 93.36023 104.83440 112.64015 114.95925 114.37958 142.96293 143.45372 141.23533 148.98319 160.35455 165.83347 164.84580 164.80637 165.89320 170.45236 173.91532 174.21600 169.99847 175.15546 185.42097 195.42776 213.09664 245.70991 262.26943 287.75088 307.98628 344.35565 363.75764 399.72837 406.76031 422.73003 525.15346 417.28734 108.82340 94.66544 63.60511 44.51362 9.81750 -25.06150 -57.54396 -78.90735 -105.26419 -112.78045 -239.22496 -438.25040 -658.75763 -917.49598 -930.67330 -1078.22794 -1282.49057 -1527.05459 -3663.21521 -3789.42640 -4609.53740 -4618.93346 -4562.66047 -4711.87307 -4879.81475 -4918.55969 -4906.16471 -4864.61951 -4568.89777 -4331.05161 -3694.17015 -3183.77343 -3089.28740 -3120.47894 -3163.63797 -3196.69002 -3217.31955 -3238.45430 -3247.01555 -3256.51412 -3261.12745 -3265.16801 -3267.22376 -3269.63256 -3272.17181 -3273.87542 -3277.86025 -3282.34043 -3288.77234 -3300.12630 -3310.35976 -3328.29914 -3328.39914
-5134.32973 -5134.22973 -5134.19786 -5134.62428 -5132.75574 -5133.22467 -5131.65954 -5130.30482 -5130.25005 -5127.07513 -5124.73977 -5123.33366 -5120.93131 -5119.41944 -5115.86833 -5114.33624 -5111.10246 -5106.40463 -5104.55696 -5094.15112 -5091.38273 -5008.07546 -4962.16955 -4910.08951 -4939.40572 -4980.50905 -5018.47329 -5029.43980 -5009.63388 -5028.91978 -5121.88467 -5135.71743 -4625.09082 -3821.79481 -2148.36838 -1494.31570 -1319.49904 -1090.15529 -1065.64734 -1078.48458 -1009.99199 -947.85887 -690.85651 -531.65213 -403.86408 -239.11326 -201.39527 -125.26311 -107.92629 -49.62250 -15.93769 97.43056 109.80410 131.93087 85.68384 78.42741 71.70125 58.49716 66.48172 84.66858 77.92219 93.53383 87.29525 116.30963 121.43270 136.30623 151.72728 158.74046 160.07157 157.28179 159.07840 160.18021 161.82854 160.91460 159.23435 151.61466 166.47927 177.38347 203.37407 218.57389 246.53493 270.51808 287.04493 310.04858 350.88944 365.25896 369.62321 410.31435 343.23582 167.29175 100.48691 78.87158 21.01295 2.20514 -49.55689 -72.90916 -108.53405 -109.47690 -148.58265 -242.05558 -379.71422 -698.26432 -956.06730 -1227.60373 -1158.25026 -1500.91555 -1803.09649 -3395.98846 -4483.39910 -4620.57993 -4939.39499 -4917.84251 -4759.01984 -4520.33613 -4651.89896 -4847.96313 -4999.59703 -4830.34649 -4897.03344 -4616.48600 -3668.63385 -3157.05222 -3087.91845 -3117.74396 -3152.18275 -3203.54069 -3223.19189 -3240.66162 -3250.95386 -3255.98077 -3263.34097 -3265.84954 -3267.91567 -3269.49943 -3271.06489 -3274.13901 -3276.32164 -3280.18792 -3289.19267 -3299.88961 -3311.05255 -3330.32957 -3330.42957
-5141.27156 -5141.17156 -5140.32837 -5140.03431 -5140.37941 -5138.76022 -5138.30008 -5138.14095 -5135.04682 -5135.63769 -5134.32938 -5132.02976 -5131.73516 -5126.56458 -5128.13204 -5122.96642 -5119.65616 -5114.38924 -5112.39581 -5107.28688 -5100.87098 -5082.97906 -5082.16671 -5071.30677 -5069.64494 -5046.80449 -5063.08974 -5059.05291 -5050.24751 -5061.32829 -5113.80388 -5116.33379 -4666.66344 -3876.81027 -2659.63035 -1982.41823 -1540.07422 -1309.57826 -1232.70701 -1139.46652 -1056.02980 -1002.84520 -900.03676 -579.02982 -488.50770 -257.09685 -203.58399 -134.08912 -115.62123 -84.05387 -15.86491 48.70085 63.68333 60.67434 23.20201 29.10424 39.33761 45.17088 40.97726 60.33462 53.39442 50.45661 67.84849 93.56471 107.11363 122.46034 146.83532 152.24671 151.74431 150.72584 147.53876 146.42275 143.18940 141.72056 144.51161 143.03841 145.62863 159.11129 174.63101 212.25026 228.07702 250.55176 262.31158 292.15483 320.89030 335.68287 388.62049 463.90609 339.95973 113.73011 89.82340 58.92357 3.56852 -10.85918 -55.98311 -87.29655 -159.95398 -196.08292 -235.23329 -425.60362 -634.16294 -1199.11238 -1437.16559 -1450.51280 -2668.74057 -2463.90208 -3622.25533 -4740.35363 -4871.23675 -5071.98415 -5081.39387 -5008.49336 -4928.96925 -4577.52037 -4623.09557 -4848.93561 -4953.33536 -5105.84493 -4838.24792 -4225.21169 -3473.01402 -3140.84943 -3097.71870 -3119.97537 -3183.98907 -3211.15675 -3230.56627 -3242.90832 -3253.18206 -3258.22522 -3264.26461 -3267.31109 -3268.24695 -3269.23480 -3270.84290 -3273.34144 -3275.00973 -3279.61254 -3286.29058 -3297.48975 -3310.99529 -3332.17046 -3332.27046
-5148.22348 -5148.12348 -5148.63347 -5147.68323 -5148.06471 -5145.03227 -5145.80116 -5143.67392 -5142.18801 -5142.31745 -5140.20381 -5137.52572 -5136.43241 -5135.57468 -5133.94249 -5129.62147 -5128.19235 -5125.28279 -5123.00847 -5118.41686 -5116.89736 -5107.91966 -5105.20008 -5107.09553 -5096.09910 -5089.89387 -5086.23752 -5072.62765 -5059.19199 -5064.48905 -5098.19550 -5135.55088 -5073.94590 -4949.00048 -3624.71136 -2689.62696 -2133.01945 -1570.03252 -1377.58186 -1216.82944 -1092.54381 -936.62336 -818.70045 -594.77921 -400.76483 -294.49683 -226.42900 -164.63768 -128.87965 -105.22103 -70.70509 -13.03047 -6.49079 -22.43865 -4.33233 -6.30050 -3.19349 -7.92921 10.77611 22.86030 22.26690 29.54790 46.39446 64.45260 90.93144 105.96325 144.29982 149.33370 146.79469 144.73368 142.23251 136.36103 134.25097 127.65359 124.67563 127.25538 133.42430 146.64292 166.07577 191.05053 195.28520 218.75061 256.34920 277.55625 297.69982 311.83967 330.77809 417.45745 315.37399 107.95255 75.15847 39.32330 9.00997 -30.62055 -83.74355 -108.26213 -155.54039 -245.36703 -480.34563 -1280.40288 -1568.32885 -2233.05265 -2168.83733 -3469.50088 -4646.91900 -4502.09839 -4448.91707 -5140.29305 -5206.79355 -5190.46445 -4945.58677 -5058.91973 -4937.44254 -4761.39635 -4376.30188 -4539.00773 -4531.85967 -4836.56515 -4926.21719 -3730.98593 -3218.31842 -3101.84598 -3104.94467 -3151.66799 -3185.87548 -3211.09500 -3233.31826 -3248.31412 -3256.53397 -3262.20475 -3266.74265 -3267.83398 -3268.74443 -3269.40754 -3270.63293 -3271.96648 -3274.21327 -3278.50045 -3285.65860 -3297.38202 -3312.26008 -3333.67606 -3333.77606
-5155.23113 -5155.13113 -5154.68643 -5156.08460 -5153.86619 -5153.49884 -5152.49996 -5153.44823 -5150.53218 -5150.06742 -5149.20513 -5147.56222 -5145.59994 -5143.59359 -5141.61056 -5141.63024 -5136.23401 -5133.09138 -5130.73018 -5129.96349 -5127.89896 -5123.17154 -5117.28712 -5112.79669 -5107.59189 -5100.87661 -5098.79052 -5085.33047 -5072.92374 -5075.21462 -5085.44818 -5103.41812 -5149.25825 -5119.64130 -4918.80484 -4255.86456 -3317.15890 -2150.29642 -1588.15684 -1190.71189 -1011.01992 -915.35541 -789.87944 -634.79849 -418.91710 -318.58042 -267.16974 -201.51894 -152.63263 -123.84064 -89.25357 -78.30006 -61.88158 -49.38253 -61.05776 -59.54405 -55.62850 -29.18185 -22.50122 -18.73883 -2.30603 2.27691 14.82851 45.87405 67.03803 106.83884 137.53188 150.99912 144.71535 140.40465 135.21541 129.18517 124.62815 117.62780 116.30758 114.38479 118.52782 124.94058 142.30537 164.84574 190.39805 227.57574 232.27092 250.72200 274.36043 270.33820 263.01938 288.18526 135.61735 64.81186 50.51961 5.46941 -22.92984 -52.67002 -101.37596 -122.34736 -209.17444 -496.83667 -1152.27138 -2347.37852 -3259.20364 -3736.76683 -4538.98223 -4884.95463 -5268.74715 -5271.11423 -5286.28904 -5312.19826 -5184.62538 -5251.30421 -4931.23577 -4228.93090 -3490.89240 -3708.05941 -3340.76576 -3409.09402 -3921.30935 -4328.17225 -3978.83269 -3416.96589 -3091.52824 -3078.29157 -3109.36865 -3146.53839 -3191.26479 -3221.36058 -3236.24045 -3251.90262 -3260.53997 -3264.47899 -3268.45836 -3269.21871 -3269.35821 -3269.34336 -3270.23676 -3271.21706 -3273.10369 -3278.87857 -3285.41031 -3294.29161 -3313.63047 -3334.99364 -3335.09364
-5162.40628 -5162.30628 -5162.76458 -5161.45743 -5160.78952 -5161.82494 -5160.85932 -5160.24640 -5159.92065 -5157.48078 -5157.09831 -5157.48697 -5155.09438 -5154.90450 -5150.63441 -5151.93585 -5149.42367 -5149.52303 -5145.60772 -5143.74676 -5137.34410 -5133.67773 -5132.06576 -5125.32456 -5119.86970 -5116.23916 -5112.44523 -5097.67691 -5090.39436 -5079.09857 -5076.12186 -5083.94657 -5132.72658 -5146.59453 -5014.37488 -4725.12891 -4228.38591 -2654.15975 -1907.07458 -1111.03514 -1011.22708 -939.39909 -875.77074 -707.29580 -474.01434 -346.51256 -265.26361 -218.19064 -204.03992 -167.55931 -133.00801 -125.85139 -115.86200 -92.49354 -96.25032 -87.18430 -92.23147 -73.26188 -58.45915 -45.40202 -27.31730 -22.25884 -7.21515 12.30019 45.43542 76.38263 124.96373 150.90406 152.64758 140.81333 131.79186 128.37268 112.77819 107.06495 98.31857 100.59569 108.43065 115.05190 124.80737 143.67812 179.56978 201.26944 216.99832 241.07916 246.44933 246.95747 232.51712 272.47853 151.19709 38.12797 28.95078 -12.89325 -36.66961 -112.10804 -240.47683 -334.22742 -777.35290 -862.05617 -1542.53698 -3732.48224 -4921.89937 -5300.89515 -5095.32461 -5259.87210 -5248.57321 -5269.84023 -5319.54462 -4946.03752 -3566.25084 -3027.01249 -1401.46019 -773.87658 -1052.59315 -1275.83063 -1425.60094 -2105.75340 -3378.45348 -3341.84460 -3261.58108 -3110.58829 -3062.80602 -3068.22193 -3121.86210 -3167.04969 -3209.19583 -3230.66250 -3245.85349 -3256.58056 -3264.11832 -3268.04943 -3270.45451 -3270.54729 -3270.17699 -3270.37718 -3270.75761 -3270.76251 -3272.41018 -3277.55462 -3286.38031 -3296.53681 -3316.30128 -3336.44947 -3336.54947
-5169.89459 -5169.79459 -5169.28216 -5170.69864 -5171.34909 -5169.83959 -5169.52523 -5169.04327 -5171.84506 -5168.56268 -5168.03864 -5166.03856 -5164.79075 -5165.41630 -5163.83381 -5162.70282 -5161.05757 -5156.01530 -5157.44142 -5155.84473 -5152.80247 -5150.79730 -5139.60688 -5139.18258 -5134.22217 -5130.85311 -5126.61318 -5120.04497 -5105.95079 -5096.19713 -5083.60882 -5077.05709 -5084.43597 -5093.46989 -5071.34403 -4942.02058 -4215.21331 -3084.86739 -1976.17143 -1302.96544 -1026.76281 -955.82742 -886.71486 -848.12227 -692.97398 -428.32963 -309.60197 -244.34003 -224.62850 -187.08097 -175.29408 -157.85076 -142.87776 -135.34400 -126.27398 -106.01579 -130.17569 -99.25104 -88.77005 -69.10284 -63.43775 -60.98238 -36.26305 -7.46502 12.63389 38.35236 113.68289 171.32162 165.06991 143.37812 134.55996 116.10777 106.60864 93.56487 90.16324 87.61106 95.00925 107.14101 117.66191 121.73746 136.49294 175.96927 197.57725 208.73952 206.34783 209.86367 200.12537 212.15012 97.26461 -10.68365 -23.61406 -52.61547 -107.87101 -154.06705 -516.99695 -1160.85762 -2032.89145 -3321.36927 -4083.22308 -5019.82615 -5289.94449 -5310.56782 -5295.43253 -5279.41329 -5264.90374 -4836.92671 -4276.03716 -2821.73422 -856.23012 -747.21554 -770.42809 -109.67661 -116.11611 -116.94585 -142.08779 -1194.26631 -2558.16082 -2941.15242 -2988.59528 -2992.99957 -3020.88443 -3060.13292 -3133.80418 -3182.59248 -3215.72276 -3241.46354 -3249.56019 -3263.86818 -3269.52083 -3272.24224 -3273.80969 -3271.96731 -3271.56217 -3271.88631 -3271.60117 -3271.44199 -3272.70365 -3275.43640 -3287.34273 -3296.61648 -3317.01697 -3337.60663 -3337.70663
-5177.80731 -5177.70731 -5178.23020 -5176.64702 -5177.16265 -5178.70700 -5179.29760 -5179.00693 -5178.95694 -5182.03997 -5181.45301 -5179.21920 -5173.93721 -5176.28089 -5177.12418 -5173.13322 -5176.43897 -5174.09016 -5166.81346 -5169.28422 -5167.27470 -5165.04587 -5162.66185 -5159.36674 -5152.12274 -5148.53844 -5139.56413 -5137.21535 -5139.04910 -5118.39258 -5103.28159 -5093.55555 -5077.70668 -5068.23985 -5059.69764 -4889.86545 -4530.46837 -3278.08005 -2072.25371 -1370.98366 -1153.30910 -1064.78398 -942.85477 -870.76804 -816.11215 -632.38632 -455.40515 -338.90991 -308.97859 -280.73243 -236.42511 -231.95491 -180.95877 -156.74041 -176.50314 -176.83955 -167.64763 -132.25586 -122.11156 -104.82957 -95.73366 -81.34403 -61.63381 -46.74750 -16.06272 44.11937 83.05881 171.76348 199.37329 185.42689 154.48161 127.52489 107.18524 85.90137 68.50304 66.40061 72.73368 84.91223 115.88553 116.29326 118.95944 143.93249 170.30820 176.43662 179.73314 149.53823 178.45107 256.66939 129.10719 6.13668 -51.25930 -107.33088 -150.14014 -165.81844 -708.61520 -2510.44629 -3169.01564 -4057.89086 -4815.21493 -5010.32052 -5181.99024 -5359.99462 -5282.52471 -4995.19480 -4418.22663 -3209.98574 -2178.37784 -134.22886 -130.19269 -108.18011 -88.70507 -87.36009 -75.63838 -89.27476 -141.28223 -656.05845 -2308.83899 -2793.86538 -2957.69948 -2988.59868 -3029.57808 -3104.17079 -3153.83071 -3195.60279 -3225.48853 -3249.19612 -3260.13141 -3271.58556 -3276.20713 -3278.64682 -3278.74734 -3277.46623 -3276.52455 -3275.85142 -3274.90065 -3274.56267 -3274.23945 -3276.95080 -3284.38122 -3298.25613 -3313.64259 -3338.43929 -3338.53929
-5186.24353 -5186.14353 -5186.54922 -5189.77174 -5188.42073 -5188.50278 -5189.67501 -5192.75058 -5190.90164 -5190.37983 -5188.99157 -5189.41039 -5189.81208 -5188.83895 -5187.77145 -5188.01898 -5191.72374 -5188.10879 -5187.52203 -5190.76680 -5185.45888 -5182.02677 -5179.81901 -5176.50029 -5172.12175 -5169.73408 -5164.69690 -5158.28255 -5148.71676 -5141.42520 -5123.19749 -5119.98414 -5108.38197 -5089.25663 -5067.37168 -4977.10669 -4548.55501 -3871.86553 -2742.84078 -1790.01908 -1246.59195 -1118.75729 -1021.37640 -926.04739 -849.58895 -772.35929 -546.75898 -473.13632 -401.64865 -368.78645 -342.20570 -299.16671 -247.52918 -268.83401 -199.49823 -185.99966 -183.64775 -163.08670 -158.61394 -144.58794 -138.05926 -122.56854 -94.33913 -74.88928 -65.36349 1.35455 57.10367 127.90599 155.33781 179.68969 178.10835 131.40355 114.43847 76.70375 59.13519 52.62626 54.50162 63.40046 101.06890 95.65715 105.70469 110.50345 133.94031 140.97066 140.53241 124.82487 92.52656 211.94451 176.32495 -10.62415 -90.22949 -177.63517 -313.31677 -621.57525 -1193.23335 -1760.21515 -2190.58460 -3487.44407 -3874.29584 -3937.86909 -4364.99285 -3426.81964 -3039.89282 -2505.93151 -1444.06419 -217.36375 -172.41749 -103.52202 -86.64304 -70.39645 -46.48654 -54.45550 -61.88985 -84.53139 -266.45495 -939.87334 -2390.89468 -2859.90011 -2985.45097 -3020.57954 -3070.34710 -3119.73218 -3166.89667 -3217.76456 -3236.68924 -3259.11589 -3272.21027 -3276.44353 -3283.60719 -3285.53176 -3285.15805 -3284.53615 -3284.49083 -3282.64099 -3280.69745 -3277.61463 -3278.22268 -3280.76476 -3287.01054 -3302.95286 -3317.78874 -3339.91651 -3340.01651
-5195.28743 -5195.18743 -5196.84307 -5196.66683 -5199.64573 -5197.75754 -5198.60987 -5197.53124 -5200.66107 -5203.18706 -5203.69508 -5208.43754 -5205.87929 -5204.95597 -5205.40728 -5208.07444 -5207.17850 -5207.93056 -5204.82630 -5203.20369 -5202.50290 -5200.65659 -5196.41041 -5197.62179 -5193.39645 -5185.04336 -5182.82165 -5174.09127 -5172.37519 -5164.55153 -5148.92320 -5138.39398 -5123.04796 -5113.55186 -5100.42760 -5034.73606 -4818.59860 -4066.68936 -3044.14027 -2354.54463 -1552.13132 -1237.69006 -1128.56137 -1003.84507 -923.42011 -810.47452 -684.96095 -573.49847 -564.21268 -552.83194 -545.00502 -412.90979 -413.67819 -379.77351 -262.85468 -233.66888 -232.72166 -225.07753 -211.52839 -188.46626 -168.22311 -141.62316 -124.20131 -112.47148 -79.65706 -39.47723 14.05787 61.30118 98.05304 107.74221 167.25981 115.53182 92.31787 50.47899 31.93675 35.63437 42.23640 58.53359 68.97574 62.63643 83.48251 96.07042 111.21093 123.90310 120.82654 96.91674 52.05496 75.22195 151.08694 8.10353 -154.49294 -214.51715 -307.67772 -610.92235 -931.22668 -1301.82380 -1510.69176 -2478.22740 -3160.02926 -2323.33939 -1052.10704 -371.79862 -645.80862 -610.21572 -173.38930 -164.55859 -127.06491 -82.61857 -56.79008 -54.09614 -42.68317 -48.01311 -71.22346 -100.17538 -450.10558 -1461.36400 -2497.06996 -2956.16847 -3012.41068 -3041.43424 -3111.97275 -3145.22128 -3188.88283 -3232.83580 -3260.75425 -3268.81581 -3279.78294 -3286.77055 -3290.59714 -3293.53617 -3297.16360 -3293.03345 -3293.97635 -3291.51636 -3290.83669 -3290.03784 -3287.27228 -3287.92768 -3291.69665 -3306.32068 -3320.61267 -3341.13085 -3341.23085
-5204.95601 -5204.85601 -5202.35464 -5207.85584 -5209.00624 -5208.94482 -5212.10535 -5212.13150 -5217.21422 -5217.46190 -5215.25477 -5216.65810 -5217.34058 -5218.08571 -5216.87692 -5220.92610 -5220.22250 -5217.87988 -5222.51427 -5220.36497 -5217.28829 -5215.59762 -5215.00849 -5214.56215 -5208.77941 -5206.81728 -5201.49025 -5196.61890 -5188.31597 -5184.55992 -5172.14572 -5161.67596 -5150.65528 -5138.22386 -5131.79177 -5087.65500 -4950.66481 -4475.80970 -3747.04367 -2692.43657 -2077.24675 -1458.47083 -1269.26071 -1089.72913 -987.75195 -812.79139 -780.24732 -737.31801 -728.08445 -694.11504 -733.47005 -657.43374 -590.43663 -555.91077 -423.74569 -354.04604 -306.79682 -325.64899 -273.27895 -248.98284 -195.62001 -173.22788 -158.64352 -140.25971 -95.53516 -75.25665 -58.25389 -14.55609 3.87427 70.76491 50.24323 35.84922 47.11442 20.56603 20.19374 17.65363 15.95267 27.03028 40.95341 48.68711 57.86380 68.94081 84.00928 89.40320 84.21876 70.75933 35.80743 34.28616 18.89648 -64.15011 -155.74680 -228.16191 -304.70654 -437.03476 -588.84523 -727.56621 -1104.33899 -1955.92584 -1491.96492 -730.11543 -172.21447 -110.49991 -116.61031 -139.78900 -103.25966 -83.50232 -73.92061 -67.05829 -57.41724 -61.55207 -63.42077 -84.73288 -106.28093 -122.55917 -250.18461 -1234.45756 -2541.96358 -3011.20688 -3032.71989 -3075.88898 -3114.61124 -3174.45079 -3214.45584 -3246.70401 -3264.40469 -3279.38701 -3287.76538 -3298.01691 -3306.95500 -3308.86155 -3306.62182 -3307.93005 -3301.30123 -3306.55615 -3306.34443 -3297.76990 -3299.10973 -3298.50276 -3300.59191 -3312.81497 -3323.56569 -3342.70515 -3342.80515
-5215.06206 -5214.96206 -5219.33809 -5220.40215 -5220.69158 -5223.28712 -5223.59208 -5223.20085 -5227.55247 -5228.16647 -5232.98225 -5236.20391 -5238.12050 -5235.77246 -5238.65696 -5242.13405 -5239.38917 -5239.86256 -5239.15670 -5237.85223 -5238.07391 -5233.92078 -5236.05233 -5228.61494 -5229.39647 -5222.20746 -5219.86494 -5215.39448 -5207.87796 -5202.95749 -5195.52182 -5182.40474 -5176.61727 -5167.60241 -5153.42685 -5125.04981 -5071.13175 -4809.01686 -4460.56124 -3143.42031 -2475.88722 -1836.20936 -1550.61353 -1241.42336 -1122.84358 -950.75728 -879.29128 -812.68435 -805.74263 -824.56710 -840.21220 -900.00932 -807.98189 -650.10602 -632.29714 -513.88329 -495.26599 -540.07971 -451.20100 -350.03313 -257.16883 -207.81569 -196.19542 -169.92608 -143.96439 -107.38959 -98.84822 -56.43400 -46.10022 -17.00677 5.74488 -1.47974 1.54869 -5.95492 3.41041 -0.69902 1.76469 4.80604 19.48405 28.12412 40.87161 48.57791 72.72683 74.39695 76.04601 65.93775 32.67257 -22.48805 -67.94476 -73.66607 -184.88588 -239.98986 -303.03703 -341.81695 -412.23082 -530.76165 -680.55266 -638.19534 -349.60190 -217.12987 -78.63861 13.27526 9.18568 -33.74833 5.79439 -24.23744 -44.59005 -60.46679 -75.99744 -84.64698 -99.58077 -106.02164 -124.98776 -488.81057 -1816.86430 -2518.84620 -3038.37123 -3022.21828 -3045.16275 -3084.46456 -3142.09968 -3191.58460 -3229.91076 -3260.17153 -3279.70098 -3286.59302 -3307.82620 -3318.12209 -3318.64176 -3324.44523 -3328.59498 -3335.73214 -3333.04594 -3325.66573 -3321.47231 -3319.64009 -3312.76305 -3313.73466 -3313.98098 -3322.16525 -3328.46675 -3344.47232 -3344.57232
-5225.76892 -5225.66892 -5227.52913 -5229.65628 -5234.28585 -5235.75957 -5238.94078 -5242.39972 -5244.35490 -5245.39693 -5248.61836 -5248.67183 -5249.53506 -5253.06679 -5253.34880 -5253.81160 -5250.00457 -5259.47029 -5254.38125 -5255.95589 -5249.22380 -5254.22174 -5252.14554 -5247.69498 -5243.36438 -5236.17088 -5233.31850 -5231.39014 -5224.23538 -5217.21977 -5211.00020 -5204.41138 -5192.62937 -5183.46530 -5153.10137 -5128.62195 -5136.54933 -5028.25040 -4565.43223 -4270.23736 -3293.83428 -2895.34274 -2121.24546 -1986.52463 -1872.59929 -1252.77687 -1090.02400 -972.09244 -893.01478 -920.99332 -969.24253 -1026.84735 -887.28374 -788.48691 -693.14241 -697.55816 -684.42048 -644.09771 -578.48786 -441.74981 -330.67945 -271.19350 -251.84682 -174.05676 -156.23730 -128.22043 -121.16454 -91.29133 -72.01218 -58.99955 -52.42031 -38.41507 -41.67207 -29.19168 -22.95248 -24.08265 -13.00604 -7.18527 -2.32018 9.44183 23.44393 32.74840 43.57437 51.46854 46.11152 37.98269 15.03619 -21.58675 -69.50924 -120.79480 -160.41657 -246.61138 -247.22225 -270.70014 -334.00556 -337.54198 -354.20274 -316.71806 -191.03949 -56.22180 24.94385 71.63910 128.94956 127.22877 88.08154 41.74330 -49.74493 -84.79782 -113.87534 -130.58054 -156.04350 -1184.13538 -1852.71136 -2538.78204 -2668.96014 -3039.46604 -3037.65772 -3018.17309 -3038.84558 -3082.20853 -3148.73766 -3194.11312 -3247.50102 -3283.65876 -3296.82259 -3317.04430 -3324.04151 -3332.61521 -3340.97621 -3345.17284 -3350.30482 -3355.14202 -3356.82108 -3357.48329 -3349.67640 -3352.33471 -3337.11807 -3331.08393 -3325.24419 -3327.41903 -3335.26220 -3346.17878 -3346.27878
-5237.02852 -5236.92852 -5239.00899 -5243.94433 -5247.04029 -5249.02571 -5251.28362 -5254.90260 -5259.32417 -5261.84512 -5266.39516 -5264.38396 -5269.41788 -5274.09508 -5277.03242 -5273.58955 -5278.40009 -5274.96660 -5267.81971 -5271.78861 -5271.52876 -5266.81111 -5265.73031 -5263.83078 -5264.36288 -5257.25587 -5252.28765 -5253.14180 -5242.48226 -5232.54137 -5225.65281 -5222.99630 -5217.59724 -5183.25291 -5164.04643 -5125.72515 -5117.45872 -5063.57550 -4902.97591 -4715.68387 -4429.00411 -4047.46452 -3295.63534 -3141.71578 -2455.11660 -1909.80478 -1381.61413 -1154.69008 -1097.61816 -1077.03623 -1083.73552 -1061.03180 -990.58081 -883.10572 -796.83431 -740.66946 -714.65425 -695.07883 -630.34304 -596.08792 -551.07842 -471.39952 -377.05249 -302.10101 -223.91352 -157.37491 -132.99785 -124.02296 -109.43461 -84.18599 -73.41844 -73.15591 -72.66092 -54.57224 -40.25395 -43.96514 -39.06510 -24.58516 -19.75381 -0.80963 8.73981 13.42472 20.68599 30.76680 38.30148 26.41742 8.97539 -25.45789 -50.23603 -98.84719 -135.80148 -177.34093 -209.15901 -239.08415 -210.65877 -200.47948 -168.77211 -120.36789 -17.80899 153.81755 254.11493 379.96049 329.65038 193.01721 102.86338 -0.92962 -47.19044 -101.24286 -156.08485 -641.03126 -1377.64999 -2358.73070 -2646.03872 -3170.00053 -3062.23688 -3004.72065 -2996.09292 -3008.34583 -3060.00630 -3102.57680 -3176.43040 -3217.02642 -3262.39531 -3289.68941 -3319.92551 -3332.68721 -3341.63658 -3354.02402 -3358.62775 -3375.21454 -3379.68284 -3380.38651 -3384.55970 -3387.51717 -3386.67420 -3370.71406 -3358.09566 -3340.83428 -3343.35410 -3342.51117 -3342.88449 -3348.72920 -3348.82920
-5249.45315 -5249.35315 -5254.24775 -5259.26021 -5265.77358 -5272.02547 -5268.19943 -5275.33485 -5280.18037 -5281.96250 -5285.24427 -5287.32695 -5289.57159 -5293.81620 -5291.17328 -5285.79847 -5293.52909 -5295.37404 -5295.79439 -5295.13813 -5292.11976 -5289.82695 -5289.18032 -5288.95749 -5283.74936 -5281.67690 -5272.43247 -5264.45165 -5259.57832 -5257.72353 -5251.92255 -5241.30339 -5235.26385 -5202.13902 -5185.35458 -5143.29482 -5120.76802 -5093.89463 -5065.51234 -5075.31914 -4891.65253 -4755.63394 -4414.43789 -4062.33095 -3621.73477 -2891.97187 -1963.43251 -1517.28143 -1346.97221 -1335.57541 -1214.11267 -1146.76793 -1057.97677 -944.43038 -867.48838 -854.09643 -765.52745 -734.51932 -723.68402 -739.94341 -630.47078 -552.23279 -450.62377 -361.48486 -319.32349 -220.76720 -173.93373 -150.19087 -132.89012 -121.58004 -106.59712 -99.40342 -91.83070 -77.50130 -62.86041 -62.92172 -47.54657 -37.13803 -31.26503 -18.81618 -9.52360 3.88821 7.83027 17.34816 12.69849 4.68964 -3.01041 -13.37637 -34.53582 -85.26921 -126.18460 -136.46539 -133.62940 -172.83448 -158.74303 -113.72361 -97.54265 -70.77113 167.73859 395.00427 460.52547 700.49257 442.70768 176.40431 60.22067 -25.37256 -58.07559 -133.64703 -472.86452 -1193.59472 -2671.13610 -2906.00327 -2968.50784 -3030.46078 -2952.22472 -2953.32179 -2963.19117 -3003.65491 -3063.03356 -3139.75971 -3195.56863 -3219.79053 -3294.10311 -3323.41565 -3336.81163 -3354.81799 -3373.29962 -3386.72622 -3384.92843 -3401.37495 -3407.64254 -3421.55313 -3426.45484 -3410.61374 -3414.79621 -3393.61910 -3384.02877 -3370.47154 -3361.54315 -3352.58451 -3349.72476 -3350.90537 -3351.00537
-5263.97177 -5263.87177 -5269.69636 -5272.37665 -5281.86060 -5288.85002 -5299.18241 -5298.68833 -5307.28583 -5313.74664 -5312.56506 -5315.51324 -5310.97454 -5321.32622 -5324.50596 -5326.04727 -5322.60547 -5323.05681 -5328.31251 -5323.78241 -5316.59598 -5321.40981 -5320.80903 -5308.17559 -5307.25244 -5301.71922 -5305.22222 -5290.41888 -5288.06662 -5282.88141 -5272.39367 -5255.28938 -5247.27746 -5225.59591 -5195.98887 -5167.28883 -5147.01865 -5149.79174 -5114.25719 -5088.66599 -5034.19182 -4979.76225 -4843.92692 -4757.43180 -4431.87023 -3197.07305 -2931.44739 -2229.08442 -1718.61063 -1614.88368 -1272.24435 -1194.75426 -1128.67201 -1080.35131 -1001.53853 -947.08115 -849.03656 -794.66109 -821.99963 -870.33368 -768.64955 -625.33653 -537.14245 -502.77551 -406.93037 -286.64340 -226.31024 -210.84149 -163.08980 -143.89291 -134.56505 -125.41893 -111.29786 -97.22486 -79.01633 -77.13605 -65.81546 -56.91267 -35.13832 -27.14110 -16.85896 1.11253 3.57663 4.51363 1.62912 -8.92806 -15.07914 -18.98217 -31.92895 -39.83474 -80.45776 -120.76541 -86.64891 -83.84323 -91.73061 -91.95547 -32.53254 77.85312 413.09527 694.28858 564.07722 521.13935 134.94714 49.42730 -10.69341 -68.00442 -120.43317 -287.84737 -656.54777 -2328.29336 -2882.55452 -2945.45486 -2939.44157 -2936.51216 -2921.84606 -2927.27189 -2975.37922 -3001.79398 -3104.45327 -3151.55652 -3234.52912 -3263.27152 -3311.27653 -3335.02466 -3362.10024 -3379.39593 -3404.81905 -3419.25867 -3431.02927 -3446.99617 -3449.29907 -3458.02533 -3457.22327 -3457.89157 -3433.57457 -3427.09028 -3405.93678 -3395.58027 -3371.66110 -3363.94216 -3355.26807 -3352.38864 -3352.48864
-5281.74755 -5281.64755 -5290.82630 -5298.11731 -5308.40798 -5311.93141 -5325.56293 -5331.27415 -5331.43583 -5343.75853 -5339.46856 -5364.12929 -5353.82359 -5352.99077 -5353.60064 -5354.92829 -5354.48257 -5353.09132 -5356.46079 -5359.64094 -5367.06986 -5356.66651 -5355.02501 -5355.21139 -5347.47669 -5345.17846 -5352.46725 -5330.23415 -5335.50940 -5323.49769 -5311.74650 -5299.00530 -5277.57901 -5262.93995 -5226.29411 -5214.51322 -5187.49014 -5169.52964 -5143.76831 -5105.27852 -5065.59045 -5014.87469 -5001.41373 -4943.71290 -4749.93752 -4294.78592 -3953.27766 -2985.48967 -2593.78326 -2060.87636 -1683.76199 -1250.09816 -1313.63110 -1266.49714 -1108.51814 -1088.29276 -972.65769 -942.15356 -930.57015 -1048.00353 -975.54796 -769.99616 -682.19461 -569.35627 -474.98525 -359.04854 -297.93100 -276.98570 -227.65017 -181.37163 -153.01056 -138.63486 -119.07070 -107.79481 -96.99531 -87.07466 -75.80018 -69.18519 -54.94119 -31.62532 -23.17847 -5.36262 2.87697 0.81270 -7.75109 -20.18784 -20.77521 -22.57024 -21.09918 -25.16028 -32.23524 -31.43583 -28.80482 -47.43287 -25.68317 -19.69525 129.41928 320.07006 546.35800 799.52297 559.08258 263.23087 39.26915 -51.62328 -96.77198 -175.71894 -209.84907 -732.79160 -1655.47304 -2869.21113 -2893.28477 -2880.64966 -2899.39469 -2908.18400 -2912.31137 -2936.40381 -2988.02913 -3043.77196 -3117.95483 -3193.59585 -3238.71889 -3299.09379 -3328.82968 -3357.93544 -3389.53499 -3410.09009 -3430.05709 -3448.55028 -3468.47825 -3474.59295 -3484.88441 -3490.90583 -3483.96289 -3481.52667 -3462.66461 -3443.38021 -3429.32773 -3413.13755 -3387.92368 -3370.26054 -3360.36658 -3352.39879 -3352.49879
-5304.52674 -5304.42674 -5313.22834 -5323.16454 -5335.76210 -5346.74091 -5361.69593 -5380.12670 -5384.74129 -5393.76528 -5416.96419 -5399.08933 -5402.66635 -5407.21373 -5385.24819 -5400.29092 -5396.51945 -5414.41136 -5415.24943 -5406.26447 -5395.64397 -5398.73354 -5403.65932 -5397.46857 -5400.69981 -5404.73047 -5391.22291 -5384.99502 -5371.50757 -5379.61845 -5366.56308 -5332.89059 -5326.39376 -5303.18989 -5292.19443 -5259.39097 -5243.52848 -5204.07291 -5200.04924 -5154.87605 -5125.50214 -5067.40026 -5031.91127 -4958.90370 -4938.65425 -4699.17012 -4545.52012 -4300.94820 -3832.73183 -3123.27116 -2540.83903 -2057.74650 -1814.80940 -1787.47389 -1364.09909 -1230.92682 -1232.41258 -1164.41805 -1679.36713 -1740.15098 -1358.02609 -943.30905 -703.84142 -608.33869 -475.02960 -409.60213 -382.96867 -331.81771 -274.66567 -244.06153 -179.97469 -138.54272 -122.57936 -111.79823 -102.35604 -96.08185 -90.58536 -81.07511 -58.62350 -33.94504 -26.77601 -9.26353 -7.83712 -3.07616 -17.26991 -22.67186 -13.77942 -6.38011 -17.33263 -18.20406 -22.04632 -3.23103 11.76557 15.31431 3.65680 65.79398 239.49653 469.93908 561.91357 479.17387 143.93347 54.91650 -14.84491 -93.56850 -154.25642 -215.31052 -250.95679 -936.76133 -2782.58815 -2983.06364 -2976.10982 -2905.14396 -2910.11976 -2911.35886 -2922.96312 -2957.29196 -3027.73879 -3065.60177 -3156.73453 -3202.36211 -3282.00517 -3331.48877 -3364.11799 -3396.73474 -3427.39816 -3443.00316 -3471.78311 -3485.25039 -3502.26653 -3509.67814 -3515.65386 -3517.36258 -3506.61839 -3502.19020 -3482.74013 -3465.67220 -3449.34301 -3413.95409 -3395.98170 -3372.57484 -3362.09237 -3350.92032 -3351.02032
-5334.54279 -5334.44279 -5351.23045 -5370.13670 -5372.93132 -5385.89070 -5407.75813 -5424.40204 -5432.92667 -5443.42061 -5455.97150 -5451.76367 -5461.73803 -5454.32711 -5455.97149 -5453.37798 -5458.17025 -5465.87532 -5462.34354 -5462.99963 -5456.98914 -5476.12974 -5462.48061 -5463.41501 -5477.57819 -5463.77077 -5456.58557 -5446.73116 -5465.24785 -5429.37722 -5429.30677 -5393.50887 -5384.50458 -5387.42239 -5352.84435 -5317.09058 -5297.55210 -5267.98389 -5223.06886 -5211.45418 -5158.75402 -5132.84934 -5060.59155 -5022.69204 -4964.78913 -4905.04187 -4814.33847 -4689.52762 -4435.82480 -4135.87585 -3810.06356 -3759.42166 -3582.91198 -3368.03088 -2512.14434 -3152.45952 -2867.89655 -3070.66305 -2567.69914 -2110.45024 -1551.75012 -1002.12860 -735.35150 -568.79157 -461.33938 -411.46499 -387.03289 -326.01936 -283.81087 -247.11591 -224.61833 -152.99350 -124.19178 -111.43948 -105.53048 -98.13237 -87.31238 -87.72720 -74.30632 -42.36004 -31.10888 -20.99764 -24.01538 -23.39192 -16.31147 24.55887 42.69878 44.95425 2.03064 -2.25674 -7.14194 50.52434 59.40161 61.53084 121.96851 253.43699 407.21227 671.80409 621.25534 316.30170 39.45502 -32.79081 -75.08759 -189.05488 -208.30697 -941.51931 -1281.57603 -2589.47050 -2926.57573 -3093.98954 -2966.01527 -2925.15438 -2932.39921 -2930.87145 -2944.82783 -2985.87448 -3057.37902 -3114.36990 -3175.12107 -3227.91819 -3296.58362 -3359.43259 -3381.70200 -3427.02866 -3459.44888 -3482.41205 -3502.97483 -3519.23103 -3527.89467 -3535.16908 -3540.48060 -3540.73893 -3526.97476 -3516.53727 -3497.25667 -3472.55825 -3449.48811 -3422.47367 -3395.61680 -3377.22142 -3358.33895 -3347.22825 -3347.32825
-5372.84619 -5372.74619 -5393.58937 -5402.92667 -5431.19181 -5449.39116 -5453.88596 -5469.71879 -5481.07676 -5508.70716 -5529.76303 -5528.57403 -5534.92370 -5552.39645 -5567.36860 -5548.96313 -5539.79505 -5537.27530 -5534.91089 -5520.33972 -5534.84468 -5532.15165 -5551.54146 -5549.45683 -5544.20055 -5533.35503 -5519.42748 -5538.61989 -5526.92356 -5510.89981 -5497.47901 -5497.70245 -5453.48128 -5436.06383 -5416.15195 -5395.07361 -5357.86413 -5318.48841 -5324.09584 -5263.51127 -5203.46220 -5192.15428 -5130.58328 -5078.26655 -5022.30317 -4942.16795 -4826.88646 -4738.07178 -4647.02349 -4509.60592 -4479.42733 -4364.90870 -4209.45607 -4202.77744 -3725.47774 -4032.32853 -3826.57924 -3550.99047 -3111.02362 -2411.02977 -1595.01556 -1199.68930 -828.94710 -553.58405 -478.37905 -416.31029 -401.48107 -363.86939 -282.58941 -254.60901 -228.99950 -193.78290 -127.00013 -117.65129 -106.09516 -88.71075 -82.50029 -70.56223 -65.74859 -37.08729 -32.78968 -26.69886 -14.09514 2.05306 6.87831 43.65003 67.29995 65.07841 58.96858 60.81825 58.16748 136.94842 171.91717 346.24129 402.71632 586.89327 918.79685 874.20385 449.95393 240.54930 -9.25756 -119.16800 -159.26000 -258.22423 -876.42107 -1593.50183 -3057.35634 -2630.60250 -3067.89994 -3070.15128 -2968.33035 -2939.45266 -2940.90061 -2947.67958 -2987.68185 -3014.68673 -3089.99848 -3150.19194 -3210.50635 -3297.76724 -3345.00564 -3397.88629 -3426.43808 -3465.86513 -3482.42676 -3511.73990 -3535.10621 -3551.18785 -3556.59124 -3555.13025 -3555.50922 -3548.25738 -3532.50361 -3517.80257 -3497.67062 -3470.73163 -3452.29812 -3412.71121 -3392.15032 -3372.80842 -3354.47313 -3341.92970 -3342.02970
-5420.30818 -5420.20818 -5449.05569 -5454.39808 -5506.00888 -5523.34784 -5541.39197 -5567.45177 -5568.04809 -5589.16327 -5599.35217 -5592.89154 -5588.40858 -5608.78863 -5605.25013 -5617.50886 -5625.28966 -5593.02794 -5629.76185 -5647.44856 -5605.97460 -5601.29195 -5622.21631 -5611.32542 -5625.28418 -5623.94462 -5593.43518 -5606.70577 -5576.47330 -5601.29273 -5570.58290 -5566.76865 -5547.08188 -5517.87887 -5511.13069 -5476.47307 -5478.58122 -5434.84673 -5382.62544 -5343.39650 -5302.01517 -5269.45492 -5244.95032 -5160.65829 -5078.04882 -5003.59472 -4845.80755 -4781.85463 -4661.65058 -4602.86316 -4529.66142 -4460.13538 -4421.65874 -4374.30244 -4325.10264 -4186.67158 -4030.47725 -3688.49097 -3158.75044 -2310.99268 -1743.78454 -1248.70131 -931.18269 -687.67846 -535.56109 -445.35998 -385.40436 -343.20804 -296.78402 -265.19426 -241.17448 -197.51497 -140.05475 -113.08358 -93.83802 -79.91789 -78.02763 -66.59651 -48.29547 -38.69908 -26.52467 -2.62666 10.88171 23.31865 46.96567 69.15022 79.86415 81.30661 77.76978 315.28538 339.71980 368.56262 355.91297 957.04608 1163.98670 1539.29881 1550.53228 1075.32068 746.84620 373.67827 27.32357 -157.15747 -288.28331 -1122.96559 -2788.88354 -3233.00207 -3558.01244 -2985.66943 -3092.61391 -2995.24454 -2969.66688 -2957.97425 -2972.84618 -2979.02344 -3002.66730 -3032.73998 -3125.22333 -3202.84040 -3278.72077 -3328.91174 -3358.06613 -3448.55664 -3465.21486 -3507.05970 -3528.46735 -3549.48865 -3559.70606 -3567.43860 -3569.52857 -3565.67024 -3559.35690 -3547.56604 -3525.16154 -3510.24883 -3486.72937 -3464.73664 -3437.39555 -3408.25504 -3388.71330 -3366.00422 -3346.50463 -3334.92587 -3335.02587
-5478.14261 -5478.04261 -5505.87748 -5534.55754 -5563.20545 -5572.29987 -5606.48482 -5630.12573 -5641.32721 -5674.41321 -5693.03433 -5711.51549 -5693.36133 -5712.09027 -5703.85043 -5702.46769 -5714.49155 -5690.84615 -5707.25403 -5700.68844 -5696.33664 -5702.73748 -5687.57816 -5677.16096 -5665.07531 -5688.30993 -5699.17756 -5682.96563 -5672.42009 -5650.67668 -5652.76487 -5632.23872 -5616.40586 -5604.00094 -5591.00637 -5545.36606 -5520.41925 -5509.35804 -5472.92048 -5454.14981 -5417.62817 -5343.30591 -5303.75749 -5219.98552 -5207.46124 -5060.18134 -4989.77445 -4898.56349 -4771.96201 -4671.94986 -4576.82233 -4501.49969 -4454.77580 -4411.71246 -4367.23128 -4280.84920 -4204.15698 -3822.31252 -3409.86403 -2648.76935 -1721.87745 -1396.51068 -1104.60485 -825.87385 -584.36907 -505.40155 -385.59125 -338.92758 -297.29738 -257.49754 -249.05885 -220.07104 -142.16244 -105.31617 -84.90418 -72.26725 -74.76696 -70.49594 -68.16736 -39.96346 -17.07151 7.93162 16.65818 25.64168 61.55443 83.51244 129.92882 241.06524 320.34851 600.63553 913.20625 827.98506 894.40989 1405.25717 1650.43272 2058.40860 1914.37224 1244.33744 992.26771 483.88289 -0.80801 -175.77636 -1286.19524 -1599.26119 -3052.13514 -3664.22262 -3348.83764 -3131.83348 -3016.27722 -2982.67646 -2984.36857 -2997.53774 -3015.53102 -3020.46616 -3050.86468 -3092.64061 -3163.30956 -3241.16744 -3300.22665 -3381.67058 -3430.49701 -3475.52633 -3501.51940 -3533.74545 -3558.80246 -3564.67385 -3577.64148 -3579.10210 -3572.76077 -3566.40832 -3553.88346 -3541.25199 -3519.45090 -3489.84094 -3477.01418 -3446.97279 -3427.84146 -3406.80359 -3371.42949 -3351.37528 -3338.66709 -3326.96058 -3327.06058
-5542.89543 -5542.79543 -5567.14775 -5603.42165 -5643.40835 -5665.10334 -5694.00665 -5727.23838 -5728.25253 -5763.07131 -5764.84999 -5769.26641 -5787.41106 -5778.56924 -5793.79041 -5780.45256 -5776.66259 -5776.47868 -5771.47007 -5775.88483 -5770.11248 -5766.18756 -5771.30035 -5763.78864 -5760.27692 -5769.40155 -5772.79714 -5745.90333 -5732.47328 -5729.07235 -5716.60703 -5689.34659 -5704.95811 -5684.22116 -5666.93903 -5634.26579 -5613.25230 -5595.80283 -5568.49441 -5525.10099 -5490.59390 -5468.50112 -5408.81571 -5348.06439 -5269.58576 -5234.22884 -5108.88270 -4989.06453 -4883.15756 -4796.43689 -4651.48595 -4554.27336 -4503.73951 -4435.92426 -4400.02972 -4351.27819 -4264.69941 -4010.65324 -3544.08916 -2607.18560 -1966.41617 -1650.10366 -1250.96854 -842.26634 -660.24907 -522.52370 -443.74735 -340.23702 -295.91711 -262.93680 -234.70161 -168.56539 -87.89785 -77.91139 -78.47081 -69.74783 -63.66113 -49.65745 -56.93509 -66.17649 -38.98534 0.80627 27.09020 36.24968 66.37106 116.92343 260.62601 502.01353 725.97930 1287.23254 1882.42828 1883.77039 2035.95252 1839.11889 1676.04387 1938.09482 1654.40436 903.57655 733.48714 -401.67954 -1882.14956 -2127.67446 -2169.04749 -3015.02846 -2889.01593 -3290.60195 -3251.73605 -3048.08928 -3001.79758 -2983.60366 -3017.15384 -3030.41197 -3054.46604 -3051.29886 -3089.66275 -3148.36556 -3188.70053 -3303.17513 -3370.13119 -3405.25817 -3467.92968 -3517.01572 -3545.63135 -3563.50260 -3577.67195 -3582.05236 -3584.19518 -3579.35483 -3564.41111 -3553.62301 -3536.10920 -3518.77288 -3500.31233 -3467.44279 -3451.51626 -3428.21606 -3409.01952 -3383.54307 -3360.29226 -3343.76855 -3330.50666 -3318.90585 -3319.00585
-5612.69936 -5612.59936 -5637.01347 -5682.62573 -5700.16657 -5724.76321 -5784.29428 -5800.10785 -5811.53799 -5826.24969 -5850.11698 -5850.42903 -5837.65895 -5849.82481 -5841.78172 -5843.35025 -5837.40847 -5829.92943 -5843.39768 -5835.76773 -5828.43541 -5806.71265 -5807.46388 -5804.50364 -5806.54970 -5813.15217 -5799.02989 -5795.90541 -5783.69083 -5780.66757 -5769.55281 -5765.25721 -5741.56139 -5732.20170 -5736.29593 -5694.87631 -5689.58316 -5632.33291 -5629.31634 -5598.42098 -5552.37507 -5512.86370 -5476.79719 -5415.76577 -5354.94959 -5296.30761 -5194.07895 -5081.12034 -4994.02926 -4891.85825 -4754.33602 -4633.23610 -4530.19802 -4463.97961 -4403.79016 -4331.58580 -4163.47422 -3901.60645 -3516.63388 -2537.32646 -2100.74057 -1514.85180 -1234.13333 -907.25056 -746.06156 -588.79901 -504.26141 -347.54496 -286.56401 -231.80973 -198.03002 -141.73294 -72.08267 -55.85663 -41.45630 -7.06407 -17.00275 -4.86339 -35.24749 -36.67698 -69.67667 10.17302 24.53240 146.12178 319.92552 330.92780 492.05976 982.82333 1477.59074 1909.19880 2235.25542 2352.66842 1895.72743 1590.45858 1205.09420 829.78620 802.20377 401.57776 -125.05348 -860.52446 -2921.60897 -3618.82012 -3783.46387 -3778.63434 -3508.40186 -3249.65550 -3100.90500 -3042.72500 -3007.89806 -3016.85626 -3044.23614 -3089.52385 -3080.65855 -3118.67707 -3147.88201 -3207.78087 -3275.53467 -3343.87569 -3388.57454 -3434.76597 -3494.18078 -3536.57591 -3567.18564 -3580.10846 -3588.72207 -3588.23540 -3583.60331 -3570.73706 -3560.51997 -3535.36714 -3523.09797 -3509.56837 -3476.46626 -3448.09588 -3433.06847 -3410.39646 -3392.58467 -3371.47823 -3343.81735 -3333.75544 -3324.37250 -3310.54274 -3310.64274
-5681.64601 -5681.54601 -5706.10144 -5751.93992 -5784.10070 -5811.72220 -5824.16543 -5854.94281 -5861.10787 -5895.27784 -5889.76746 -5896.85115 -5895.48789 -5898.31923 -5890.37489 -5878.25684 -5891.67476 -5882.52635 -5880.10811 -5871.96896 -5863.63262 -5861.78275 -5856.35284 -5847.80032 -5844.28491 -5842.36023 -5833.46886 -5819.02865 -5812.72309 -5806.27993 -5790.03920 -5792.43857 -5782.74982 -5756.76776 -5754.52299 -5746.08612 -5721.67755 -5709.25752 -5682.57260 -5661.67155 -5628.96600 -5586.82447 -5562.01545 -5491.19232 -5437.98750 -5366.89886 -5277.22994 -5188.40555 -5091.94900 -4980.25797 -4824.16320 -4683.74423 -4602.37190 -4528.48795 -4387.73327 -4283.12252 -4132.76665 -3895.75620 -3378.67038 -2737.17418 -2434.26752 -1671.64120 -1334.14063 -1062.47601 -867.59506 -680.24370 -495.76078 -406.88259 -297.57100 -236.55182 -166.80339 -148.08686 -64.48860 -45.08510 -30.05744 22.54792 33.84354 24.96877 53.26096 40.99864 12.62235 330.33272 793.85472 607.65277 696.04214 877.04302 1193.84556 1337.77107 1570.25823 1768.33509 1827.60850 1369.64404 1054.56491 860.83441 795.25762 228.88365 243.01097 94.14660 -686.18301 -1738.07685 -3403.03766 -3803.66177 -3580.08425 -3384.34844 -3287.80784 -3168.82673 -3067.77155 -3033.38754 -3023.76906 -3038.63052 -3073.96780 -3110.77312 -3136.35386 -3150.18146 -3191.96056 -3241.96736 -3313.10807 -3384.94872 -3433.77691 -3503.09530 -3543.18024 -3559.15491 -3584.63761 -3592.19257 -3593.54694 -3585.01768 -3573.00322 -3557.24486 -3531.13029 -3513.12900 -3489.12877 -3465.70644 -3450.12087 -3426.80412 -3404.47915 -3388.68584 -3365.58910 -3352.40161 -3337.90748 -3325.20014 -3315.39080 -3303.69359 -3303.79359
-5746.99141 -5746.89141 -5779.60262 -5801.36859 -5838.72831 -5863.39859 -5904.74367 -5901.14550 -5922.72749 -5927.69471 -5929.79758 -5928.91599 -5927.81196 -5927.77618 -5917.89804 -5919.38445 -5907.96895 -5902.42480 -5899.21224 -5892.64959 -5885.02610 -5876.55214 -5871.16158 -5867.25852 -5858.03121 -5853.62747 -5838.68706 -5829.45998 -5822.44114 -5818.80057 -5812.35284 -5803.97755 -5796.58779 -5789.44325 -5780.22507 -5760.73564 -5745.51237 -5728.34687 -5721.13746 -5701.71659 -5664.76735 -5649.62795 -5603.72795 -5536.74308 -5495.26783 -5405.07282 -5359.48147 -5268.25837 -5187.91107 -4995.40271 -4736.15258 -4396.22009 -4178.45238 -4230.59360 -4053.97837 -4237.44447 -4074.62747 -3920.71068 -3570.95560 -3303.02136 -2584.78827 -2362.58727 -1365.96814 -1051.64489 -885.01365 -633.50817 -577.44045 -465.33584 -319.81853 -218.13089 -187.97174 -61.55306 -48.75343 -0.14852 131.67558 207.04472 283.26357 253.74878 236.09382 419.73307 362.15633 738.78864 1102.96078 1283.78051 1238.27174 936.61292 911.58718 913.40670 1057.07109 946.80414 977.68822 691.72788 647.76641 436.08542 250.94067 -72.82029 -181.87160 -401.86478 -1557.99798 -2645.16960 -3376.57047 -3596.30729 -3423.61746 -3273.65895 -3167.64042 -3123.06693 -3075.15562 -3059.58533 -3059.04245 -3068.08291 -3103.52915 -3151.53172 -3168.80000 -3193.35167 -3254.68055 -3299.71860 -3360.15337 -3405.45799 -3469.52678 -3513.07591 -3555.66395 -3581.34616 -3595.09115 -3595.35872 -3586.43708 -3570.82104 -3562.46999 -3532.23387 -3510.24566 -3493.27050 -3462.57402 -3454.19734 -3418.93165 -3400.47253 -3388.76361 -3365.82352 -3352.87545 -3337.20796 -3327.24858 -3315.38324 -3303.97842 -3297.67119 -3297.77119
-5802.51877 -5802.41877 -5829.15034 -5846.52066 -5870.34134 -5891.28113 -5919.22719 -5926.93727 -5941.45748 -5947.76292 -5946.94399 -5946.74700 -5945.48653 -5937.57233 -5932.82170 -5926.12011 -5918.46082 -5912.85301 -5905.95318 -5892.82266 -5888.52795 -5881.16503 -5873.55212 -5865.40690 -5860.93105 -5845.93348 -5837.58577 -5828.40601 -5815.61013 -5813.61911 -5805.84981 -5803.16928 -5797.18831 -5786.92366 -5777.63385 -5767.18566 -5757.56858 -5748.12622 -5733.25445 -5719.51368 -5702.29534 -5676.66968 -5647.27413 -5606.51893 -5543.78426 -5481.63409 -5421.92207 -5356.17294 -5276.22562 -4769.29366 -4168.55594 -3503.58848 -2831.93779 -2904.23911 -2881.05591 -3635.79957 -3968.72213 -3762.95852 -3630.66419 -3299.90623 -3032.86047 -2617.54524 -1659.27437 -1289.61755 -931.01289 -811.49608 -608.82383 -410.35621 -264.08260 -156.51922 -102.74781 136.03503 384.32743 484.39179 692.29669 703.67323 785.41021 1037.71212 931.44646 1065.85167 1305.29890 1045.88123 1074.80381 1153.27079 858.53032 328.38659 433.66801 410.11635 388.59180 501.87994 522.12849 362.69406 287.80177 201.86524 -90.82496 -1191.50393 -1689.31460 -1051.97934 -2075.00731 -3489.73488 -3694.49481 -3490.86714 -3352.71004 -3210.81019 -3178.39477 -3148.19789 -3098.09073 -3080.86311 -3076.95624 -3098.06396 -3140.75459 -3206.85230 -3223.60363 -3231.83970 -3285.04535 -3338.25756 -3397.86247 -3441.76634 -3496.55175 -3529.22574 -3574.12493 -3591.28263 -3595.78837 -3589.61081 -3577.09990 -3556.22418 -3534.76849 -3504.72048 -3483.11290 -3458.67967 -3446.04784 -3414.28603 -3397.05332 -3380.16750 -3363.09643 -3354.31072 -3339.32938 -3326.85243 -3314.86125 -3304.09743 -3298.61717 -3293.27022 -3293.37022
-5848.79024 -5848.69024 -5871.76229 -5892.70296 -5914.35642 -5930.28430 -5939.87197 -5945.25157 -5950.90229 -5953.05734 -5952.98097 -5946.23000 -5942.23668 -5935.00631 -5924.75727 -5919.28921 -5913.87730 -5904.65920 -5894.68339 -5885.72760 -5875.45491 -5868.12401 -5860.29879 -5849.90072 -5830.98962 -5819.04892 -5811.92665 -5809.16077 -5803.30059 -5789.01712 -5782.35662 -5778.73764 -5782.07492 -5775.52606 -5773.30504 -5764.74070 -5759.38186 -5750.59125 -5742.04516 -5720.90373 -5704.84973 -5688.64755 -5662.21209 -5622.20965 -5583.74013 -5544.09146 -5481.85864 -5398.14277 -5199.88870 -4385.39721 -3344.39325 -2643.45261 -2104.88517 -2014.40560 -2140.28365 -3084.26266 -3410.31128 -3710.54115 -3683.83113 -3499.50147 -3168.68986 -2637.11431 -1837.52882 -1540.03768 -1118.82274 -881.84775 -807.02701 -514.89891 -309.25878 -100.44440 -33.11053 108.16762 537.01543 1125.34053 1425.83908 1488.59846 1594.05756 1900.64577 1698.91400 1513.78689 1479.47938 1091.08213 745.31081 756.54069 224.22404 161.05428 196.76948 152.78085 139.43078 326.78834 187.83229 63.40356 16.59829 -39.54089 -2065.16315 -3610.55625 -3147.60551 -2582.17953 -3033.64452 -3705.59375 -3643.21464 -3471.49417 -3307.33109 -3240.46292 -3196.05223 -3151.21420 -3125.22030 -3108.01678 -3104.41957 -3119.51847 -3193.82620 -3231.70450 -3256.48462 -3281.62656 -3329.69228 -3363.22791 -3422.32023 -3461.61891 -3517.68564 -3550.00667 -3583.63303 -3591.88570 -3587.41078 -3574.81260 -3567.54216 -3543.12786 -3512.10294 -3482.19334 -3465.89365 -3426.59285 -3413.59654 -3395.14399 -3375.18339 -3360.85689 -3343.67571 -3333.01025 -3322.37332 -3313.26569 -3307.83953 -3297.65605 -3294.66457 -3290.61344 -3290.71344
-5880.58712 -5880.48712 -5894.00401 -5913.53052 -5926.02411 -5938.51963 -5944.92230 -5946.77363 -5948.32321 -5943.40855 -5946.38742 -5937.62747 -5927.94413 -5922.56278 -5908.86665 -5901.88917 -5892.04924 -5880.41775 -5874.87222 -5859.59146 -5856.88481 -5839.44580 -5839.32384 -5823.67911 -5808.05992 -5796.90424 -5788.52040 -5779.56493 -5778.12263 -5768.84196 -5763.08360 -5763.01069 -5759.07066 -5759.77128 -5755.85930 -5753.62299 -5750.74338 -5745.40335 -5736.20445 -5725.26039 -5712.43132 -5695.27537 -5669.74081 -5634.84856 -5601.45126 -5551.62553 -5491.83046 -5332.06797 -4707.66162 -3843.32933 -2730.19521 -2151.05517 -1667.41040 -1576.58419 -1754.01628 -2185.21519 -3192.81481 -3187.89605 -3270.13850 -2903.22856 -2508.85641 -2216.71566 -1834.31157 -1303.73052 -1013.33668 -956.17371 -820.72701 -633.09602 -262.73625 -32.48825 72.44060 296.76495 747.31009 1046.56664 1335.64333 1358.45862 1296.91333 1509.85422 1045.33819 1058.53133 744.13932 461.05276 241.12890 110.44391 79.43733 68.57990 40.58857 14.95032 34.08485 117.11790 -173.19364 -219.20268 -1089.81183 -1475.56265 -2271.67080 -3837.08047 -3810.14309 -3490.73348 -3724.00554 -3658.09539 -3563.38979 -3439.50771 -3338.10205 -3249.29676 -3216.40799 -3176.36877 -3140.78321 -3123.57054 -3135.34471 -3180.61705 -3245.95677 -3288.14355 -3281.79369 -3297.35701 -3352.93027 -3405.57290 -3449.54264 -3504.01353 -3543.20739 -3573.28693 -3584.49138 -3583.16676 -3576.92990 -3561.22566 -3542.68878 -3512.23593 -3485.98432 -3450.14708 -3439.33876 -3410.82939 -3389.22310 -3372.03435 -3355.70632 -3346.17677 -3326.82935 -3322.70318 -3309.37857 -3304.30943 -3301.41591 -3294.96080 -3291.92768 -3289.39800 -3289.49800
-5899.70186 -5899.60186 -5912.11895 -5920.28232 -5932.06633 -5937.51276 -5938.52672 -5936.49791 -5932.21147 -5926.83222 -5919.01687 -5911.12466 -5911.53155 -5896.76702 -5886.46954 -5883.57653 -5870.38077 -5858.86431 -5849.15910 -5839.43197 -5832.86129 -5814.42443 -5800.85560 -5787.04603 -5786.00398 -5767.05545 -5758.18063 -5744.53011 -5734.33159 -5732.33897 -5729.27778 -5724.23493 -5730.47676 -5736.19462 -5737.41718 -5740.65125 -5739.71223 -5737.38777 -5732.76376 -5721.49106 -5709.26729 -5694.86157 -5675.65174 -5643.08483 -5604.12252 -5502.39401 -5319.16606 -4967.77537 -4246.30380 -3180.36920 -2495.15657 -1744.48795 -1598.64913 -1513.89801 -1558.71111 -1776.33997 -1967.21540 -2153.49099 -2143.76659 -1962.99326 -1585.01745 -1398.46651 -1143.57289 -948.78554 -903.75274 -760.57097 -706.20007 -526.05811 -256.35828 -54.13276 -24.88570 33.17498 294.39873 526.27693 383.08763 555.35155 332.18391 454.43394 477.32614 431.73342 104.46802 188.73018 19.40505 -10.97015 66.08535 -12.09153 -53.70701 -129.77946 -46.19295 -357.80470 -516.41102 -481.41533 -2550.02462 -3807.66733 -3121.49271 -3947.89699 -3803.53526 -3732.23281 -3698.58973 -3607.18811 -3524.92915 -3424.22051 -3330.91874 -3257.93431 -3229.87582 -3197.02381 -3161.65790 -3149.98856 -3177.57189 -3194.19519 -3266.41389 -3326.61646 -3328.35273 -3360.68522 -3397.35516 -3427.98662 -3478.36125 -3521.59742 -3553.36229 -3578.15815 -3581.84674 -3574.03920 -3562.51054 -3546.92285 -3523.10359 -3483.46437 -3468.15366 -3434.76074 -3406.24944 -3394.77246 -3367.17702 -3350.81738 -3342.61558 -3323.51081 -3316.80063 -3309.46383 -3303.37525 -3297.94632 -3294.11811 -3291.41702 -3290.87540 -3289.96205 -3290.06205
-5908.56483 -5908.46483 -5915.72682 -5921.13381 -5925.38125 -5927.05113 -5924.42908 -5918.92905 -5916.49841 -5910.14930 -5903.93764 -5893.20564 -5879.61339 -5873.57075 -5862.47402 -5851.55783 -5836.44437 -5834.92679 -5815.78429 -5806.00882 -5795.58425 -5791.30578 -5772.68960 -5761.51589 -5745.55750 -5731.77812 -5722.01898 -5712.32115 -5702.31716 -5699.03464 -5704.87356 -5705.90587 -5708.06233 -5715.36917 -5719.96594 -5723.96681 -5728.92677 -5721.26384 -5726.99812 -5718.42504 -5706.71454 -5690.61111 -5680.16980 -5632.71155 -5434.32266 -5103.16048 -4823.88258 -3942.49813 -3458.89723 -2484.45657 -1975.17759 -1676.05988 -1530.70735 -1466.15886 -1436.12693 -1483.17068 -1543.41238 -1488.58044 -1401.16623 -1191.06974 -1015.31839 -925.76679 -893.01369 -696.47200 -540.36003 -408.90792 -365.58293 -365.59612 -206.25021 -138.98831 -117.25458 -51.72490 8.15002 27.52257 86.31319 69.12312 78.10012 91.40655 56.30239 2.67353 -2.88299 -3.49649 -53.57477 -57.22655 3.50254 -88.97292 -191.36065 -329.45350 -1506.56590 -2988.34804 -4146.74823 -3242.17837 -2619.39607 -4028.10588 -3785.07789 -3685.87081 -3653.67027 -3620.45374 -3578.73887 -3540.57789 -3484.79323 -3410.13716 -3332.54032 -3275.06335 -3235.34717 -3204.29846 -3182.31967 -3189.49745 -3210.59444 -3268.73917 -3348.91641 -3365.05059 -3359.79142 -3384.34734 -3419.96402 -3471.72748 -3502.36002 -3535.21751 -3559.44157 -3574.59131 -3574.50010 -3561.77584 -3543.74209 -3529.27453 -3503.17853 -3464.76854 -3438.85495 -3416.96443 -3386.17815 -3375.81516 -3351.73494 -3339.05817 -3327.47687 -3319.58799 -3310.60355 -3302.71822 -3298.01027 -3294.53660 -3292.87354 -3291.75843 -3291.38048 -3291.90091 -3292.00091
-5906.40474 -5906.30474 -5909.66910 -5914.19496 -5912.74210 -5908.47101 -5907.73214 -5902.72122 -5895.36079 -5886.57307 -5870.19364 -5867.90110 -5857.55786 -5854.41943 -5836.99260 -5827.54634 -5815.91533 -5806.79287 -5792.97130 -5784.49366 -5780.13152 -5757.37999 -5741.24470 -5737.02160 -5719.44206 -5708.10430 -5689.73146 -5688.28791 -5677.91104 -5667.87694 -5671.49163 -5661.26439 -5681.56304 -5689.31180 -5700.29454 -5710.93134 -5714.89334 -5711.31250 -5718.45004 -5717.07625 -5697.25988 -5678.09492 -5638.85217 -5525.63431 -4639.79528 -4268.30033 -3631.93101 -2974.62190 -2379.57574 -2007.99933 -1690.53957 -1599.06614 -1482.32043 -1409.60252 -1396.73384 -1394.50478 -1376.30826 -1335.15203 -1208.25386 -1093.17361 -988.34499 -902.38011 -766.91547 -475.32794 -323.11387 -240.55911 -99.39560 -75.33135 -146.48638 -169.19498 -178.26404 -123.86123 -77.91561 -58.37767 -24.91730 -38.89829 -16.49691 -10.45316 -68.00195 -111.65468 -106.05032 -184.69075 -134.23691 -397.15953 -974.69971 -613.00814 -605.94098 -1776.52851 -3128.03069 -4091.46353 -4246.33593 -4031.80387 -3975.60178 -3920.31654 -3685.46594 -3636.54178 -3601.17973 -3582.88399 -3572.81851 -3526.41567 -3472.70719 -3406.37180 -3344.63910 -3286.91043 -3249.83554 -3217.60304 -3206.57080 -3220.45392 -3261.13270 -3319.55463 -3407.93216 -3429.47160 -3408.09029 -3416.81873 -3452.64208 -3486.06108 -3523.06174 -3540.34382 -3552.12315 -3561.33182 -3555.95614 -3538.62596 -3534.39026 -3516.27473 -3470.34965 -3434.56695 -3420.23825 -3391.50063 -3370.34882 -3355.88022 -3338.26308 -3327.37709 -3319.52332 -3307.77686 -3302.56660 -3298.45571 -3294.99077 -3292.82913 -3292.52541 -3292.75416 -3293.98642 -3295.04962 -3295.14962
-5898.97421 -5898.87421 -5898.24641 -5896.69708 -5894.42180 -5894.53501 -5889.74055 -5880.29013 -5871.78810 -5867.66189 -5855.76144 -5848.17005 -5835.10160 -5821.06740 -5810.09803 -5800.38057 -5784.64994 -5782.29668 -5767.39966 -5757.83225 -5748.48439 -5736.36622 -5730.42162 -5703.65618 -5690.69252 -5680.93472 -5667.31635 -5653.79961 -5643.43251 -5647.87693 -5645.06292 -5645.46059 -5648.49485 -5663.57967 -5679.72287 -5689.46425 -5705.50674 -5709.90230 -5718.13184 -5733.03626 -5698.41413 -5678.86116 -5497.12840 -5171.59464 -3877.24158 -3466.01309 -3090.87713 -2335.84543 -1944.03300 -1780.24644 -1576.05046 -1482.06544 -1390.21646 -1427.94861 -1401.26134 -1548.88128 -1496.65756 -1290.87306 -1117.70345 -1079.61841 -1010.24218 -959.73403 -895.26760 -444.26952 -207.55171 -56.99768 326.16297 465.10985 158.73324 -92.48426 -189.31483 -212.45923 -237.67817 -53.91225 -57.56463 -80.32687 -48.72563 -229.15006 -268.83649 -217.87940 -658.47658 -1042.83290 -947.62841 -1971.69453 -3249.90125 -3129.36565 -3292.07366 -3990.36804 -4152.04869 -4084.41703 -4026.78048 -3885.68156 -3745.45287 -3717.22670 -3648.59231 -3627.39449 -3600.79023 -3601.49307 -3570.21793 -3515.30837 -3461.39053 -3420.31974 -3342.72419 -3290.87628 -3265.65518 -3231.53372 -3231.29349 -3253.67039 -3301.59403 -3382.96860 -3442.62680 -3450.13358 -3439.17937 -3458.16002 -3474.17387 -3511.30973 -3526.35967 -3532.82893 -3549.40966 -3544.85824 -3535.27615 -3521.79299 -3501.72041 -3481.04671 -3453.38146 -3426.23170 -3397.99211 -3373.07085 -3358.34301 -3347.04637 -3326.40258 -3318.48520 -3310.47475 -3304.83820 -3299.99375 -3296.11531 -3294.37903 -3293.42578 -3293.91030 -3295.65906 -3297.32241 -3299.29499 -3299.39499
-5886.32995 -5886.22995 -5883.88544 -5882.66396 -5879.41869 -5875.35912 -5865.81586 -5863.66855 -5856.19673 -5846.85133 -5834.66064 -5825.03568 -5813.67531 -5806.97324 -5794.93473 -5783.91503 -5775.66868 -5759.09035 -5751.58998 -5744.40053 -5735.13189 -5716.94459 -5696.21688 -5681.23790 -5666.76834 -5655.50054 -5641.89262 -5627.67175 -5623.74768 -5613.22873 -5617.84035 -5622.57153 -5631.52596 -5654.48894 -5661.31471 -5679.32390 -5696.09287 -5708.59786 -5726.47240 -5743.69594 -5742.44542 -5704.97994 -5214.65985 -4595.45907 -3666.02349 -2618.05199 -2100.87542 -1866.92499 -1721.10337 -1623.49578 -1465.14105 -1410.30436 -1472.88764 -1609.84431 -1992.89129 -2011.93655 -1743.38075 -1356.69663 -1131.98314 -1128.17978 -1088.96501 -1084.56973 -990.36736 -266.55200 -75.77367 293.10391 755.55487 829.83233 464.90328 -140.27257 -551.29167 -701.25066 -872.77540 -651.95938 -426.59218 -353.47463 -398.46207 -546.34780 -877.27106 -1653.81315 -2670.89368 -2035.13916 -2239.24921 -3214.42438 -4075.19974 -4043.60480 -4028.43369 -4021.71417 -4032.70893 -3874.20285 -3820.77809 -3765.52092 -3738.77952 -3688.59427 -3660.70823 -3650.76334 -3633.20462 -3626.47036 -3576.61822 -3514.72442 -3446.49300 -3408.36411 -3346.15427 -3296.61804 -3265.20146 -3250.28516 -3279.47024 -3297.87354 -3373.73058 -3428.38498 -3502.31230 -3489.17505 -3480.72732 -3487.37078 -3489.75084 -3507.02016 -3521.98394 -3529.79170 -3535.60733 -3532.53266 -3526.78452 -3504.91034 -3488.66937 -3475.07466 -3439.84957 -3405.61164 -3379.84510 -3362.86358 -3347.32852 -3331.93560 -3323.67823 -3314.79207 -3306.58043 -3298.75271 -3296.94654 -3295.35486 -3294.71248 -3295.69313 -3296.46027 -3299.81725 -3302.12664 -3304.45483 -3304.55483
-5871.67716 -5871.57716 -5869.60162 -5864.97247 -5860.64484 -5858.49214 -5851.34287 -5847.34897 -5838.96821 -5832.85013 -5819.50912 -5813.22051 -5799.82087 -5792.01825 -5781.48510 -5769.29141 -5756.94998 -5743.46214 -5734.44478 -5727.06054 -5711.08435 -5695.43733 -5678.97649 -5667.05115 -5654.74439 -5643.73645 -5631.46621 -5612.17945 -5600.75975 -5590.94130 -5590.16780 -5594.70688 -5603.28517 -5625.64287 -5646.79176 -5667.20246 -5678.72142 -5703.73901 -5731.40689 -5741.60058 -5732.82579 -5614.93694 -4980.77078 -4247.34527 -3042.29530 -2186.05907 -1967.47409 -1775.30840 -1751.17671 -1650.05084 -1515.03748 -1390.56702 -1721.72955 -2201.40274 -2868.83704 -2925.83988 -2629.16890 -1651.82339 -1372.61641 -1422.15733 -1716.63552 -1467.63568 -1523.34461 -733.41423 35.39570 601.35513 796.32742 649.12681 316.40444 -570.63769 -1278.87899 -1465.99282 -1856.25724 -1714.26512 -1830.51764 -1164.24122 -1564.06010 -2617.46710 -3401.79576 -3464.95846 -3891.20311 -4277.87752 -3986.22688 -4188.84007 -4112.92343 -4044.82393 -4029.99647 -3983.44483 -3902.62778 -3847.34568 -3794.34334 -3763.14483 -3745.82517 -3724.04572 -3689.75526 -3669.44582 -3662.48511 -3629.41764 -3562.74028 -3500.04522 -3448.62104 -3394.47792 -3351.49913 -3302.66026 -3284.70869 -3291.59996 -3308.78767 -3357.56746 -3402.11300 -3490.90028 -3557.92907 -3535.84442 -3516.82651 -3513.49355 -3510.40765 -3506.56857 -3511.45549 -3515.68843 -3521.15142 -3523.36794 -3513.27791 -3484.23419 -3471.63506 -3443.57171 -3418.93248 -3392.28137 -3367.56452 -3354.15143 -3336.20384 -3324.79595 -3316.96784 -3307.03782 -3302.75282 -3299.46655 -3297.25620 -3296.79847 -3297.39718 -3299.03201 -3301.95427 -3304.76472 -3307.45428 -3310.34279 -3310.44279
-5855.95534 -5855.85534 -5852.57694 -5846.90977 -5846.90110 -5845.93676 -5838.59031 -5830.52053 -5827.57757 -5820.71759 -5808.71157 -5799.54145 -5787.71932 -5777.58652 -5765.98581 -5755.33841 -5744.16492 -5736.41789 -5730.26772 -5712.72631 -5698.59113 -5688.63845 -5674.69989 -5659.05917 -5646.67479 -5631.18412 -5613.55710 -5598.19041 -5579.38488 -5575.11276 -5572.24040 -5574.71075 -5587.55690 -5600.20325 -5624.52582 -5651.92323 -5671.02241 -5695.57100 -5725.68360 -5737.97536 -5695.98250 -5504.31819 -4850.67911 -3770.85142 -2483.80435 -2012.16974 -1815.50226 -2065.68463 -2179.76890 -1919.57472 -1633.00681 -1758.64789 -2349.41754 -3167.74654 -3864.75201 -3814.97014 -3176.39046 -2272.13192 -2092.00570 -2354.20492 -2595.72538 -3367.17398 -2788.87133 -2736.14818 -1788.51420 360.80571 389.97262 -58.94833 -1548.56173 -1982.89699 -2165.72043 -2118.07731 -2140.20134 -2438.34349 -2757.11841 -2819.20395 -3719.43941 -3893.66001 -3932.33970 -4240.11014 -4209.99410 -4214.59999 -4202.87631 -4098.39048 -4050.08801 -3957.35483 -3926.87864 -3899.97434 -3877.89889 -3832.36960 -3809.53150 -3777.07067 -3747.25212 -3735.94680 -3704.30092 -3689.42768 -3675.04317 -3614.68182 -3550.11983 -3495.40321 -3450.56098 -3389.66763 -3344.00406 -3320.18094 -3306.39590 -3310.39792 -3338.57152 -3390.72492 -3450.24790 -3564.04327 -3611.27740 -3582.02123 -3536.18976 -3528.73589 -3516.59816 -3505.88107 -3506.40966 -3496.75387 -3488.52670 -3501.31616 -3491.65654 -3482.66427 -3467.15103 -3429.59046 -3399.66288 -3384.63014 -3357.10347 -3343.70494 -3328.78593 -3320.34653 -3311.33049 -3306.33260 -3302.18196 -3300.31512 -3299.95060 -3299.31512 -3302.07213 -3304.25068 -3305.89977 -3309.50335 -3312.89023 -3316.83203 -3316.93203
-5841.16235 -5841.06235 -5836.92300 -5833.65199 -5832.73376 -5826.07904 -5824.81838 -5822.47420 -5815.82279 -5812.26591 -5803.58420 -5789.26548 -5780.02646 -5769.67630 -5758.66852 -5747.75274 -5736.39678 -5727.28117 -5716.68089 -5701.84567 -5687.35078 -5678.25168 -5667.15207 -5652.20692 -5631.91136 -5622.37768 -5605.50265 -5584.31928 -5575.45194 -5562.81081 -5553.15213 -5557.11602 -5569.28445 -5582.53014 -5609.59182 -5620.22757 -5661.01719 -5687.03956 -5707.76431 -5712.36327 -5659.83760 -5195.01936 -4869.98639 -3146.79920 -2343.64983 -2161.93137 -2479.60990 -2809.56522 -3156.88316 -2962.38674 -2223.93172 -1962.82018 -2548.39564 -3347.12124 -4361.20491 -4380.08575 -3984.54549 -3408.75152 -3322.52411 -3712.48236 -3967.71090 -4181.20219 -4295.84361 -4058.31462 -3419.26825 -2470.90421 -2397.24268 -1963.04830 -2914.38319 -2872.36330 -3158.02226 -2773.15203 -2948.31035 -3372.83561 -3530.66761 -3838.06109 -4143.46322 -4222.43639 -4228.56860 -4205.81752 -4191.53565 -4168.44894 -4113.88486 -4076.02572 -4009.55519 -3967.90217 -3928.90531 -3901.00077 -3873.84600 -3855.94119 -3831.85806 -3797.12036 -3775.91456 -3744.34639 -3736.98723 -3712.16058 -3662.40293 -3603.91174 -3547.42290 -3493.79323 -3453.96944 -3398.55057 -3361.69147 -3332.83436 -3337.13066 -3358.64866 -3393.92312 -3445.19644 -3524.47428 -3609.52904 -3643.23560 -3607.40835 -3559.31033 -3520.49700 -3502.67807 -3480.19730 -3481.06084 -3478.32517 -3478.03541 -3486.34066 -3475.91944 -3469.34647 -3457.38259 -3416.53187 -3388.00018 -3368.75776 -3347.89540 -3335.52589 -3326.49665 -3316.99723 -3310.98026 -3305.61085 -3303.26523 -3301.63502 -3302.41769 -3304.71059 -3305.64351 -3308.92589 -3312.28821 -3317.54265 -3319.13421 -3323.78994 -3323.88994
-5827.62858 -5827.52858 -5824.44194 -5824.35615 -5821.57386 -5818.92118 -5819.34221 -5815.45244 -5806.59728 -5800.74946 -5795.25091 -5784.78066 -5778.81736 -5763.90801 -5752.00365 -5740.85788 -5729.16407 -5719.10914 -5709.61377 -5694.96144 -5683.23938 -5671.20153 -5660.99102 -5641.46130 -5629.72889 -5611.15471 -5596.11070 -5576.93807 -5559.09232 -5548.23283 -5541.23031 -5543.14534 -5551.81759 -5551.91896 -5580.74127 -5611.04152 -5634.25605 -5667.05915 -5693.72434 -5711.31267 -5609.77213 -5063.45666 -4467.18821 -3236.85297 -2753.90445 -3008.26970 -3476.71738 -3898.46367 -4046.81485 -4057.40499 -3025.84909 -2327.82314 -2689.80761 -3391.71512 -4517.59498 -4770.20356 -4663.60317 -4467.72597 -4432.92641 -4568.20800 -4689.14688 -4774.17326 -4775.55143 -4589.73568 -4517.34388 -4228.66807 -4169.44687 -4424.88976 -4341.07765 -4082.08509 -3856.12311 -4175.66543 -4024.63825 -3938.21859 -4009.81235 -4199.55125 -4223.50099 -4244.59391 -4229.56187 -4204.63973 -4167.59874 -4137.90246 -4112.46508 -4057.90849 -4013.78009 -3979.79931 -3944.53673 -3908.40175 -3896.27773 -3875.21207 -3844.82548 -3807.23461 -3787.89288 -3769.18924 -3748.05269 -3712.95283 -3652.92232 -3591.95057 -3544.98678 -3499.43826 -3447.69722 -3405.08486 -3371.25258 -3351.81559 -3362.51169 -3386.72860 -3424.47739 -3486.31007 -3575.53056 -3617.39978 -3671.70983 -3609.53729 -3571.11165 -3520.83157 -3493.92682 -3471.71530 -3450.34596 -3446.19585 -3450.39384 -3459.26894 -3454.72310 -3458.78991 -3439.12962 -3401.70937 -3379.89553 -3352.00460 -3340.26129 -3331.05180 -3321.04393 -3316.47664 -3309.81326 -3307.78814 -3305.74859 -3307.31728 -3306.15080 -3308.14377 -3311.10797 -3314.87921 -3320.47361 -3324.18619 -3326.57751 -3330.94034 -3331.04034
-5816.17116 -5816.07116 -5814.41808 -5812.42821 -5811.72631 -5810.56199 -5806.97073 -5805.70411 -5801.95459 -5795.67006 -5791.24989 -5779.86626 -5770.18597 -5755.36526 -5745.93366 -5739.09650 -5723.76034 -5712.43586 -5704.49973 -5685.70531 -5675.79284 -5665.26451 -5650.92875 -5634.24508 -5625.02837 -5602.72652 -5578.99374 -5568.20409 -5548.36707 -5539.91841 -5531.15650 -5530.09316 -5529.53212 -5539.19599 -5554.78194 -5587.99025 -5621.24093 -5636.52500 -5668.44900 -5695.20741 -5563.77441 -5273.11005 -4370.21325 -3637.81667 -3377.70763 -4077.95067 -4476.42877 -4800.09320 -4989.58513 -4613.55372 -4407.07030 -3426.12006 -3127.38613 -3681.27582 -4272.04000 -4740.28727 -4847.09051 -4811.97503 -4834.85383 -4883.66326 -4826.93789 -4819.05594 -4808.43241 -4773.05269 -4688.95811 -4621.56494 -4538.90288 -4529.16473 -4481.76242 -4412.25178 -4307.65348 -4304.38251 -4236.02451 -4290.22395 -4270.62506 -4279.62987 -4267.02293 -4254.91370 -4230.98098 -4201.48729 -4172.15781 -4137.03903 -4103.93938 -4058.21595 -4018.34415 -3991.03971 -3948.62202 -3913.34367 -3892.08832 -3875.51340 -3849.73828 -3824.77396 -3796.02911 -3772.58091 -3727.58572 -3677.47057 -3637.10824 -3592.98143 -3543.27304 -3496.58620 -3455.22406 -3422.10025 -3382.37446 -3378.83853 -3388.99264 -3428.42796 -3452.74527 -3531.09120 -3600.08129 -3684.61369 -3673.23926 -3611.65397 -3567.26447 -3512.35821 -3476.91369 -3452.21211 -3438.69606 -3427.40380 -3436.44593 -3449.02863 -3449.31502 -3443.96612 -3409.06637 -3383.50444 -3361.67264 -3349.16204 -3339.61037 -3327.18216 -3321.65783 -3314.78569 -3311.51567 -3309.06038 -3309.41460 -3312.22587 -3313.39655 -3317.42382 -3317.74049 -3320.13798 -3325.44339 -3328.54246 -3334.67598 -3338.20301 -3338.30301
-5806.53671 -5806.43671 -5805.85876 -5802.66642 -5803.57495 -5804.08178 -5804.48396 -5800.92487 -5796.83961 -5790.29975 -5783.39884 -5772.56811 -5759.00801 -5750.85207 -5738.45306 -5727.03305 -5713.03327 -5704.63101 -5691.83461 -5679.09462 -5662.45943 -5654.19882 -5633.54450 -5628.47613 -5615.35915 -5597.90417 -5578.33960 -5565.81065 -5541.94954 -5528.74793 -5520.20881 -5515.96306 -5515.96383 -5525.95007 -5535.39087 -5559.51851 -5590.50627 -5611.40362 -5633.07928 -5662.58586 -5615.60640 -5323.45821 -4749.64576 -4263.91262 -4453.64860 -4674.68111 -5185.57708 -5322.09217 -5246.64844 -5160.18528 -4591.33540 -4059.15145 -3605.85999 -3834.54524 -4031.00143 -4639.74892 -4876.96974 -4909.26014 -4881.65795 -4821.70838 -4803.13707 -4809.57209 -4801.84755 -4782.48757 -4695.36128 -4635.82569 -4602.81137 -4531.87486 -4501.37030 -4461.12098 -4417.98370 -4392.93115 -4370.79359 -4340.51545 -4318.90062 -4289.75583 -4274.02125 -4254.78491 -4228.23577 -4200.58034 -4165.96980 -4141.06028 -4106.91825 -4066.15946 -4032.45021 -3995.02012 -3947.51715 -3917.26206 -3886.86186 -3871.17943 -3847.32800 -3836.13075 -3806.74500 -3767.02154 -3720.78885 -3673.23252 -3629.60299 -3592.46411 -3544.21512 -3503.76288 -3465.49971 -3439.73323 -3410.30203 -3405.65447 -3416.28825 -3435.21732 -3498.15813 -3554.85713 -3616.42277 -3690.07197 -3668.96110 -3602.75580 -3561.67444 -3501.25412 -3458.57652 -3440.82499 -3427.80824 -3425.69472 -3426.98231 -3433.43757 -3443.77144 -3428.98044 -3397.22694 -3369.18762 -3356.46567 -3345.27361 -3332.86298 -3325.26370 -3320.68459 -3316.19910 -3314.13252 -3315.31539 -3315.26881 -3315.92139 -3317.31962 -3320.06040 -3324.00019 -3328.58651 -3334.92911 -3337.45695 -3342.16399 -3345.52601 -3345.62601
-5798.40700 -5798.30700 -5797.45013 -5799.06414 -5797.28905 -5797.66107 -5794.20668 -5794.17110 -5789.41344 -5787.18257 -5775.33415 -5767.63049 -5752.75913 -5741.73335 -5728.40116 -5718.46463 -5704.12674 -5690.26306 -5679.61056 -5666.69897 -5654.31483 -5639.90501 -5629.78915 -5620.26289 -5612.30961 -5587.99092 -5573.92023 -5558.28503 -5540.90785 -5520.24957 -5507.82022 -5502.66523 -5496.39324 -5506.75867 -5518.46903 -5531.99738 -5552.89971 -5579.13578 -5604.71234 -5622.83292 -5637.16630 -5542.02123 -5275.37595 -5034.74497 -5093.59489 -5366.42697 -5411.76201 -5345.72199 -5314.32711 -5276.55613 -5042.43683 -4834.38757 -4397.99075 -4287.92613 -4439.59077 -4645.19502 -4828.78987 -4839.53923 -4857.67823 -4835.76045 -4806.77087 -4787.96975 -4776.95771 -4734.01032 -4697.57976 -4627.54532 -4587.37778 -4517.30237 -4484.60552 -4451.83579 -4431.75808 -4395.34858 -4374.98736 -4339.16103 -4319.54499 -4290.14189 -4273.91143 -4248.47336 -4227.39528 -4192.03059 -4153.38712 -4131.65420 -4098.52696 -4061.36235 -4031.66350 -3992.52400 -3948.30196 -3918.69666 -3888.38776 -3874.48438 -3855.46438 -3826.32820 -3792.16977 -3744.94275 -3712.00855 -3673.48309 -3639.28987 -3604.14271 -3552.11111 -3512.47131 -3484.24566 -3450.51298 -3427.70491 -3423.21421 -3434.89315 -3466.70900 -3504.08122 -3585.65155 -3620.49449 -3683.94896 -3673.62418 -3611.91640 -3550.68483 -3491.76944 -3443.71459 -3427.28660 -3415.91733 -3416.79096 -3422.78520 -3429.55986 -3430.90606 -3411.30511 -3389.94593 -3361.06030 -3350.62518 -3341.94833 -3329.72293 -3325.08181 -3321.01649 -3319.34772 -3318.32717 -3318.63412 -3319.99716 -3322.53047 -3324.48686 -3328.48695 -3332.39411 -3334.79256 -3340.04470 -3344.50688 -3347.38112 -3352.95569 -3353.05569
-5791.92592 -5791.82592 -5792.18976 -5791.07662 -5793.31327 -5793.35478 -5791.54372 -5788.13902 -5785.85257 -5775.95753 -5764.81949 -5756.42968 -5743.29864 -5730.41025 -5712.67921 -5705.42092 -5692.78563 -5674.63894 -5663.23737 -5646.77578 -5638.95242 -5629.77468 -5622.04482 -5605.69244 -5593.87628 -5580.96046 -5562.75497 -5547.08397 -5532.33721 -5513.32850 -5497.37247 -5490.16123 -5482.47000 -5483.28457 -5496.30885 -5509.23069 -5534.89435 -5562.45319 -5580.80233 -5600.53577 -5619.32437 -5611.98118 -5524.38189 -5469.74847 -5433.76609 -5452.30633 -5396.77676 -5360.11995 -5333.13827 -5280.91408 -5214.99819 -5009.32398 -4852.62027 -4684.55396 -4649.64400 -4849.27280 -4877.77014 -4861.20478 -4857.25370 -4836.89352 -4792.94308 -4765.89740 -4743.36554 -4710.97979 -4659.10126 -4601.71948 -4545.75959 -4515.05871 -4462.49154 -4438.34461 -4411.74290 -4378.76198 -4341.77825 -4322.84142 -4296.22020 -4277.62607 -4263.70405 -4244.00245 -4218.71917 -4184.09338 -4159.73479 -4121.66877 -4085.23017 -4052.42710 -4022.02837 -3992.93536 -3965.73706 -3925.32578 -3901.94350 -3883.70594 -3848.09483 -3817.07706 -3774.45499 -3739.01240 -3705.29205 -3677.80921 -3635.48935 -3605.41010 -3560.40824 -3522.86110 -3497.60771 -3453.83363 -3438.22748 -3434.57744 -3452.81495 -3494.70718 -3510.86778 -3597.20078 -3653.88395 -3710.97462 -3692.32324 -3605.46580 -3550.60182 -3484.56284 -3435.91693 -3411.21743 -3405.83707 -3409.67476 -3426.28531 -3433.06458 -3417.74188 -3397.79138 -3375.78655 -3359.04255 -3344.64670 -3336.75074 -3331.16993 -3326.83992 -3323.98631 -3322.31261 -3321.71122 -3323.55494 -3325.63904 -3329.13905 -3331.74551 -3335.10370 -3339.31025 -3341.80595 -3345.86765 -3351.75757 -3357.16968 -3360.55933 -3360.65933
-5785.86226 -5785.76226 -5786.43135 -5785.59614 -5787.45906 -5786.60309 -5783.21777 -5781.53804 -5774.45633 -5768.84742 -5755.13173 -5747.58803 -5731.08043 -5716.53676 -5703.27698 -5685.83201 -5678.10279 -5660.25595 -5652.74600 -5631.24235 -5624.62136 -5608.34848 -5602.97683 -5589.91964 -5578.58467 -5568.18338 -5553.28223 -5538.82590 -5518.39439 -5505.84148 -5488.55467 -5481.01254 -5472.92876 -5472.85192 -5476.44118 -5495.28606 -5503.73457 -5540.49616 -5559.81854 -5577.11140 -5600.09472 -5614.36259 -5595.44647 -5563.80476 -5544.72727 -5515.92901 -5394.95349 -5383.82782 -5353.00904 -5295.25775 -5243.58790 -5173.62561 -5070.29083 -4994.74455 -4959.69525 -4911.72647 -4881.90164 -4841.24796 -4832.84313 -4793.33950 -4767.23212 -4727.18504 -4701.29711 -4683.57143 -4629.37309 -4582.33549 -4530.42722 -4485.04376 -4446.64059 -4417.52750 -4396.85765 -4354.33547 -4330.50798 -4312.66724 -4286.08204 -4272.70368 -4252.63573 -4233.19408 -4212.36139 -4185.96426 -4146.89731 -4111.10428 -4073.06026 -4055.00140 -4016.04732 -3995.75945 -3958.19794 -3928.01991 -3903.47983 -3869.35545 -3829.63984 -3800.95217 -3766.37842 -3753.20989 -3705.51284 -3682.38252 -3642.37807 -3606.11646 -3564.17627 -3537.08923 -3500.42635 -3461.14552 -3444.60808 -3441.84044 -3455.89680 -3501.13893 -3541.59500 -3590.70609 -3652.12281 -3697.29026 -3693.06186 -3619.95761 -3535.35826 -3478.81333 -3429.37228 -3409.38560 -3410.85550 -3416.88950 -3423.83565 -3424.33864 -3408.33021 -3387.08468 -3365.28191 -3351.37236 -3344.29343 -3337.67802 -3332.00772 -3330.48610 -3328.52981 -3328.04610 -3327.28430 -3330.30654 -3332.40330 -3334.36342 -3341.99144 -3343.73864 -3347.52683 -3351.84886 -3355.63082 -3360.22323 -3363.72795 -3368.15828 -3368.25828
-5780.19846 -5780.09846 -5780.20706 -5779.96209 -5780.95425 -5777.73507 -5775.10568 -5771.21480 -5766.04913 -5756.25391 -5739.51531 -5730.66720 -5715.71064 -5701.43863 -5680.45283 -5669.38120 -5655.67742 -5637.99307 -5627.10532 -5613.85155 -5603.30020 -5593.73180 -5587.84317 -5577.04985 -5562.73676 -5556.70686 -5541.49816 -5525.09771 -5512.11955 -5487.40610 -5477.32232 -5466.82486 -5459.15925 -5454.73109 -5459.72632 -5470.66583 -5484.09973 -5500.51346 -5530.78563 -5554.91468 -5587.63400 -5588.91450 -5576.06364 -5562.65046 -5537.39035 -5515.63748 -5442.48885 -5424.54524 -5377.63920 -5322.72145 -5263.68375 -5184.12144 -5098.76049 -5027.70631 -4970.05718 -4903.00225 -4859.87664 -4834.49459 -4799.02938 -4766.70233 -4736.80848 -4705.51726 -4673.33089 -4645.49954 -4612.34900 -4540.65934 -4519.86996 -4472.40810 -4424.50881 -4403.67946 -4368.99989 -4338.54148 -4310.77097 -4299.04842 -4280.30702 -4263.57076 -4247.84824 -4221.40637 -4200.15633 -4176.58919 -4149.71398 -4109.14021 -4077.35900 -4061.21112 -4000.27002 -3987.59116 -3960.10928 -3927.19818 -3892.38079 -3849.05196 -3825.79169 -3793.09487 -3765.96951 -3737.43214 -3702.53742 -3681.73836 -3653.97966 -3606.75089 -3579.15124 -3533.50583 -3499.75122 -3465.87750 -3440.85863 -3442.85926 -3454.81049 -3493.65873 -3552.27531 -3595.91389 -3662.26853 -3680.70954 -3695.53917 -3640.19362 -3536.12948 -3499.45923 -3447.21895 -3426.26466 -3415.82354 -3418.21614 -3414.57802 -3404.35641 -3390.17889 -3374.57617 -3359.35723 -3348.64324 -3343.56809 -3339.55914 -3334.99801 -3333.26599 -3333.23418 -3333.96484 -3336.66287 -3337.12532 -3339.36745 -3344.64635 -3346.60406 -3351.83427 -3356.46006 -3360.80871 -3363.22556 -3364.83306 -3371.87486 -3375.92302 -3376.02302
