-4991.65283 -4994.16960 -4998.23568 -4993.67874 -4994.88243 -5005.75525 -5000.08455 -4992.74784 -4998.84394 -4999.92195 -4991.08506 -4997.18957 -5005.24232 -5003.51856 -4996.09837 -4985.83667 -4966.37509 -4917.32984 -4595.91912 -4235.29054 -2753.54192 -1517.53988 -1048.90810 -884.32420 -593.47098 -572.65596 -472.16964 -433.01930 -384.61555 -339.50332 -269.14963 -225.50461 -165.49151 -144.27363 -94.62245 -63.41039 -43.68451 -11.78571 1.83682 15.50353 29.14279 15.63992 21.37896 52.27711 41.99481 57.39025 65.75583 77.90355 93.39571 108.01862 116.63168 125.97333 127.68758 153.15921 170.70439 198.23000 218.94692 245.59236 285.96427 328.82232 394.59366 435.91520 484.91028 515.05256 489.03402 457.17370 423.40381 422.31471 393.46320 393.55893 382.85608 369.89418 372.18672 364.79665 373.18028 397.72623 444.67402 453.31524 492.46745 510.64718 540.84008 565.37618 599.28184 627.64012 646.71061 668.09186 672.19442 668.90453 653.97097 625.59660 596.16915 578.74976 557.34782 549.44636 521.41153 480.47762 436.71023 398.60675 355.58779 329.62873 273.74482 241.68260 203.17578 155.04342 129.74596 81.47137 26.11735 -30.27406 -83.28192 -176.34336 -313.68121 -1190.25242 -2311.37184 -3572.30269 -4322.92144 -4461.90996 -3827.66936 -2084.47993 -961.41201 -132.46669 -181.11038 -525.63459 -1083.90433 -1702.76134 -2338.41308 -2815.08935 -3071.59628 -3191.30399 -3207.15946 -3205.82972 -3222.46130 -3229.14792 -3233.80647 -3248.99780 -3257.27727 -3257.13238 -3268.23548 -3284.52328 -3296.23428 -3292.35153 -3303.27910 -3312.09642 -3321.77758
-5003.27632 -5000.78960 -5008.69468 -5005.57829 -5008.65485 -5009.05309 -5007.69939 -5004.28964 -5012.43522 -5008.63288 -5017.73692 -5003.23874 -5011.15921 -5006.64899 -4999.43964 -5001.61386 -4980.28661 -4799.04406 -4528.83160 -3854.63089 -2568.00636 -1335.77023 -1085.73684 -907.01674 -741.06039 -664.45446 -489.20717 -457.96420 -390.46170 -375.15921 -329.90600 -266.12009 -199.87555 -163.72230 -115.74724 -95.79844 -81.83038 -64.48824 -35.73627 -10.68726 -0.90266 -18.59533 6.20852 20.43742 35.51106 34.99611 53.24588 67.12906 74.26911 77.44745 108.04504 109.04357 128.22586 146.50208 159.56520 204.75848 215.50794 248.13130 276.60330 318.19941 376.61921 409.95258 461.55021 550.69522 509.99915 491.07373 449.49424 459.09022 427.70850 412.37168 386.13014 371.92509 368.55583 368.06707 374.91178 391.07892 428.70695 452.14179 468.15799 508.37763 536.98885 551.36152 597.54474 622.21723 632.96587 635.45705 646.49928 636.81176 641.01461 600.30846 569.01559 541.63813 527.54810 532.78205 497.05698 459.23490 411.21495 359.43129 331.87949 320.63471 263.99106 226.10265 175.72169 132.08124 102.92115 49.00932 9.29841 -44.26717 -73.47867 -169.77994 -294.19713 -792.51310 -2803.64924 -4292.30791 -4460.14067 -4447.73869 -3709.46800 -2510.71827 -577.69944 -128.24901 -142.52651 -372.92711 -1236.95154 -1794.69275 -2442.08768 -2781.77475 -3116.47032 -3197.82230 -3203.34445 -3213.60542 -3222.59786 -3220.96161 -3241.61551 -3255.30226 -3256.25575 -3259.68911 -3273.28672 -3273.52885 -3290.12844 -3299.31700 -3306.40806 -3314.86321 -3313.35409
-5017.40251 -5012.37900 -5023.48007 -5013.06834 -5019.93628 -5020.49455 -5022.41097 -5024.85854 -5012.85663 -5015.04915 -5014.82921 -5017.57159 -5021.57410 -5022.39488 -5018.37689 -5006.37634 -4969.29207 -4682.57767 -4288.72262 -3467.17744 -1959.46972 -1358.60700 -1071.51764 -1000.59568 -894.19365 -687.84948 -546.82858 -505.23540 -426.73092 -407.96822 -334.83159 -295.92609 -253.52116 -186.57190 -140.38116 -120.85801 -108.11389 -87.81560 -62.22702 -43.88403 -42.43152 -31.22748 -34.82208 -14.73726 1.40955 15.19243 38.67327 42.88872 52.25732 77.05682 82.87155 93.16595 121.83522 138.13213 162.01532 179.71150 207.68500 255.56699 266.28667 322.07001 358.17116 410.50903 462.17276 535.19314 530.23570 546.60511 526.10419 498.06651 460.19652 433.89505 402.77260 382.42492 368.88408 368.50553 388.22093 401.79060 422.27447 439.37410 461.39773 499.96879 523.44215 544.82102 578.74836 595.02636 622.96590 629.74696 631.60254 637.78840 615.96111 582.47819 550.22160 509.03640 476.79458 477.99213 454.63184 429.74814 387.53016 356.51606 331.64853 294.32045 272.08163 224.62300 143.72791 114.66768 73.33551 40.32943 -7.57989 -55.84649 -90.59456 -163.99581 -225.84130 -685.95395 -2094.68795 -4042.64167 -4343.91168 -4425.03595 -4044.17927 -2885.00399 -541.28106 -128.23630 -137.91869 -534.45248 -1209.05361 -1699.99924 -2577.17968 -2901.05321 -3153.02448 -3201.96532 -3206.04951 -3213.60652 -3227.82195 -3230.68773 -3234.13200 -3245.21496 -3254.85610 -3270.72262 -3273.08497 -3268.76913 -3297.67360 -3296.22556 -3300.62066 -3321.38718 -3316.07232
-5027.51486 -5023.31404 -5030.54781 -5034.15331 -5035.04809 -5033.87733 -5041.73536 -5030.76306 -5030.79565 -5038.01788 -5027.95684 -5026.17263 -5026.60347 -5019.20579 -5020.29494 -4999.12138 -4915.61285 -4655.29231 -3727.38395 -2837.02370 -1868.72638 -1258.64822 -1114.59041 -1049.39266 -997.02608 -843.63472 -702.37340 -552.43515 -468.78621 -450.79316 -378.45401 -369.66139 -322.98697 -263.47701 -181.99366 -152.40554 -127.68754 -109.05038 -80.84811 -75.10835 -75.11395 -58.76266 -36.23901 -28.13326 -29.91119 -2.06801 -4.81931 21.40799 37.54020 46.40017 70.40375 86.51260 121.15023 122.54816 160.33479 183.10985 192.26583 244.39239 263.52336 293.06414 324.71126 387.39315 433.33842 470.86290 518.52392 509.72940 512.88036 512.00818 480.46546 456.04472 417.29601 376.75875 362.66537 367.92158 372.50172 390.77084 411.82234 434.99326 452.06570 480.57788 515.54601 550.08440 563.45454 584.93859 606.00925 615.12412 624.51568 623.72764 598.69913 564.40018 529.23851 493.76312 449.48988 455.36882 409.95253 368.52215 346.55383 313.10337 296.15880 256.00386 220.92706 196.29266 154.00239 97.84632 53.84301 11.10785 -14.04565 -48.70007 -109.06894 -170.23385 -296.10470 -806.60858 -1565.64488 -2855.81581 -4524.93444 -4701.01737 -4411.76395 -2842.40050 -1376.18523 -363.66772 -339.31494 -915.70752 -1384.23735 -2071.16257 -2774.55394 -3133.77861 -3162.49882 -3194.72330 -3206.82166 -3221.48319 -3231.89787 -3230.31149 -3243.93453 -3248.79283 -3260.25774 -3269.10625 -3269.33741 -3287.53098 -3290.34748 -3298.00484 -3304.53405 -3318.69442 -3318.04704
-5041.32576 -5048.06992 -5045.50925 -5038.08414 -5034.40426 -5044.73083 -5040.18393 -5039.62677 -5040.72000 -5037.21155 -5040.08708 -5034.96976 -5030.96580 -5019.80438 -5024.43460 -5002.18997 -4885.63937 -4465.90473 -3492.99987 -2699.46712 -1730.92910 -1304.83665 -1176.29915 -1081.11771 -1006.85521 -847.16509 -780.79511 -709.29985 -570.85636 -474.68397 -437.28982 -387.37415 -353.12089 -310.79975 -230.17370 -169.76045 -167.36037 -151.20767 -118.72798 -111.50049 -112.71575 -88.61042 -68.78619 -52.51587 -48.46121 -6.85931 -2.69976 0.34252 31.17727 35.62904 60.34300 66.17391 96.97035 134.29449 160.28284 166.89430 200.03013 228.68877 254.08630 292.04599 319.82589 355.15988 408.74867 414.12661 445.13006 457.42360 446.70183 434.50615 442.38857 409.22537 370.68984 361.85783 354.78131 364.65153 364.64254 378.01347 404.01651 412.97630 446.94120 471.10043 491.70744 527.45935 555.73103 580.80511 593.15106 599.35506 586.27382 570.58782 547.86375 539.45205 516.45270 486.22287 449.80646 418.75851 406.68164 357.41924 313.30537 251.21581 274.04360 234.19242 187.07058 122.72917 134.34989 91.84447 24.26433 -5.98091 -48.12419 -91.03138 -146.71700 -188.58819 -494.97467 -920.69751 -1684.12903 -3582.81966 -4812.36065 -4897.26164 -4823.64567 -4058.81730 -1911.57955 -1223.57949 -1294.82061 -1424.47242 -2149.49320 -2238.29691 -2794.03487 -3146.05891 -3170.65767 -3194.30221 -3220.35937 -3227.87503 -3221.12045 -3226.11714 -3244.22062 -3251.62030 -3258.97214 -3271.85677 -3276.66653 -3275.76538 -3296.20738 -3293.79511 -3310.51355 -3315.15707 -3322.05760
-5051.89766 -5054.32141 -5042.00777 -5045.62653 -5047.67322 -5053.67361 -5053.39299 -5048.35648 -5052.18875 -5048.57517 -5042.03893 -5033.59892 -5041.58382 -5035.96022 -5035.09856 -5001.26084 -4861.22732 -4546.01219 -3454.86347 -2911.14692 -1839.10523 -1416.76944 -1198.70595 -1093.36805 -1008.83747 -966.06143 -882.75358 -814.11684 -733.60801 -600.11324 -515.98360 -467.22991 -347.90669 -316.55156 -261.55102 -234.88166 -201.21141 -177.37041 -155.93189 -139.60555 -123.44106 -130.48753 -108.51738 -73.74101 -56.28031 -33.35026 -15.81769 -9.56970 6.16718 31.05699 57.18477 74.06489 89.26552 119.07314 144.28504 164.19641 191.66739 220.15818 226.45213 270.79282 309.78890 332.41392 341.75705 385.33042 391.19760 383.68409 408.07714 404.44456 397.26714 371.58752 358.26914 341.99933 346.11119 339.21242 360.43138 373.86915 383.58226 407.77678 438.37922 471.61155 489.09625 506.45318 540.94280 556.64363 576.42167 585.85506 569.37110 537.26669 505.25010 496.90990 499.61136 455.97963 422.00628 391.07082 366.99037 372.52521 306.96985 248.87765 242.66746 207.36820 177.96025 123.47065 119.50779 72.64985 15.95924 -18.28928 -57.64765 -115.25771 -165.57964 -328.90901 -655.35934 -1443.69037 -2555.02883 -4401.83732 -4893.02368 -4922.73770 -4890.29615 -4467.81396 -3926.12863 -2595.74688 -2618.58693 -2649.28726 -2448.60393 -2883.30647 -3006.84273 -3163.62325 -3170.79171 -3196.09458 -3212.62788 -3214.37509 -3233.94846 -3246.36046 -3260.42604 -3259.81303 -3264.85310 -3273.02860 -3281.93832 -3288.33038 -3293.96436 -3300.94510 -3314.36160 -3321.70639 -3325.16305
-5050.57037 -5061.79313 -5057.63607 -5052.99562 -5061.19566 -5053.69564 -5053.34178 -5054.34099 -5054.53984 -5047.94663 -5054.20687 -5050.26359 -5040.56963 -5053.24429 -5040.57778 -5037.39937 -4926.23299 -4824.31662 -4294.31719 -3360.43590 -2154.36689 -1561.63472 -1357.71471 -1155.52331 -1101.08963 -1020.47000 -958.29116 -934.86490 -835.13675 -705.68238 -586.53884 -490.41606 -402.82196 -338.47654 -324.13304 -276.13149 -234.80011 -213.27324 -208.87279 -165.86105 -145.92896 -133.09681 -103.96998 -92.93957 -71.00890 -59.67362 -31.47241 -23.89122 -6.07999 19.01717 37.83060 58.92852 80.92889 111.11981 132.13767 161.27966 194.46440 224.68671 249.89064 276.21856 295.51692 316.73230 326.90950 349.17544 349.14430 344.33296 350.10075 351.28741 355.55942 340.93518 321.54932 313.07821 321.00185 333.60222 341.24541 367.44155 372.61540 397.73478 428.74882 450.42830 481.14672 505.83001 522.90866 536.95185 542.07866 555.96951 562.37463 517.78252 484.15885 443.33565 447.03162 429.31367 379.94226 365.05494 337.39181 335.16226 307.89482 258.83005 207.33180 172.18160 137.74211 126.29532 85.09542 64.00518 3.58835 -37.67728 -99.68302 -179.17853 -253.57045 -454.74128 -1016.93483 -1502.85292 -3359.29859 -4408.74872 -4915.28231 -4926.42953 -4899.31207 -4877.67658 -4650.27797 -4039.97539 -3260.14357 -3172.85781 -2946.06395 -3088.58716 -3157.89172 -3167.21158 -3189.40577 -3207.73193 -3216.63150 -3224.57685 -3236.65602 -3251.94941 -3258.99779 -3259.25048 -3260.31554 -3263.53943 -3268.29495 -3281.74826 -3298.32595 -3302.56321 -3310.42882 -3314.88166 -3315.23035
-5057.76294 -5067.04481 -5059.74521 -5066.14180 -5066.84890 -5060.44635 -5062.88511 -5062.83378 -5065.80706 -5060.60064 -5060.59716 -5056.75997 -5055.00669 -5058.06649 -5048.70171 -5042.17706 -5008.80827 -4918.57125 -4613.69318 -4218.20133 -3220.00066 -2660.66895 -2060.30756 -1267.81069 -1180.04773 -1050.56638 -969.94002 -935.14347 -919.50341 -852.61193 -750.49673 -600.70512 -440.60601 -390.21139 -366.32870 -367.05018 -300.79462 -263.10989 -228.05860 -192.36020 -183.24418 -159.55163 -141.71329 -118.67728 -92.95957 -73.21847 -52.41668 -20.83317 -12.16401 26.06198 32.56502 48.15140 82.59133 107.71154 136.15146 158.07757 182.31667 223.24424 252.43723 278.23312 294.06274 296.96792 306.00900 311.41548 315.96645 324.12251 310.91912 316.67478 315.94587 322.81077 309.52835 305.67771 316.29069 317.49403 330.04599 335.94482 364.16167 388.31978 420.93951 432.48290 452.62213 494.89869 517.67069 526.51257 538.53986 540.53021 532.93417 525.84360 475.69824 410.85693 423.03275 419.60183 367.20023 341.67542 290.82518 295.11904 246.79819 236.24556 190.45074 155.33512 126.50869 107.37083 63.71587 38.62270 -8.47825 -41.05763 -99.55231 -188.55283 -423.23343 -621.69161 -1133.79127 -1637.12745 -3598.44152 -4578.03288 -4914.95423 -4897.78454 -4901.46522 -4903.08644 -4838.08484 -4320.23970 -3599.49919 -3205.77653 -3057.49807 -3152.90619 -3182.19457 -3196.97303 -3195.36682 -3210.67818 -3226.81765 -3233.71185 -3240.12176 -3255.54968 -3255.65410 -3262.76899 -3263.49118 -3268.54542 -3274.47314 -3278.35845 -3293.99806 -3298.15669 -3317.53298 -3323.48880 -3328.35734
-5069.21342 -5067.26658 -5068.52859 -5064.93576 -5074.12183 -5066.95084 -5076.03463 -5070.58560 -5065.30497 -5061.84684 -5064.49672 -5064.88128 -5064.19938 -5063.86642 -5059.39169 -5055.45185 -5040.49534 -5013.47806 -4959.13223 -4739.28390 -4070.25180 -3185.36484 -2362.83400 -1690.57488 -1334.67263 -1076.66499 -1026.21041 -1006.60238 -954.95902 -933.36068 -866.06470 -693.33241 -661.31171 -549.12574 -436.50050 -396.97521 -368.53058 -305.62701 -261.91290 -242.32871 -214.01323 -183.53641 -165.78433 -133.19162 -100.90846 -82.54606 -64.71904 -23.29344 -18.15953 20.87836 35.95497 47.85676 87.53654 104.52925 126.77227 173.67847 198.17495 253.87306 293.77383 295.06483 286.91118 288.73066 283.47402 296.87668 294.73974 292.71184 290.89088 303.90343 292.50537 291.97615 293.62325 296.60749 295.49165 309.96274 311.85113 342.33828 354.48467 374.80145 397.24306 420.98204 459.34889 478.57741 487.44473 509.78906 521.75259 518.27872 521.10978 485.14690 444.29455 425.28230 336.12222 355.70120 324.22584 322.42716 280.66060 249.42926 244.66947 183.85644 164.40160 140.58344 115.97845 87.06402 61.27764 14.08685 -36.84981 -80.34995 -146.90979 -229.43977 -515.17707 -810.29517 -1286.71828 -2258.20073 -4038.38213 -4379.04398 -4868.04454 -4903.03381 -4890.04582 -4883.11721 -4873.60863 -4737.36120 -3938.01348 -3160.35388 -3170.90393 -3178.05478 -3168.63630 -3193.56051 -3207.80707 -3217.70617 -3234.72286 -3228.43161 -3245.77138 -3254.16416 -3250.84313 -3250.78363 -3270.18354 -3273.60894 -3280.85559 -3286.15793 -3297.34685 -3305.04433 -3306.90451 -3327.87259 -3317.71240
-5082.63514 -5075.81044 -5071.92108 -5075.73110 -5074.84209 -5082.12912 -5083.88011 -5076.62595 -5071.82719 -5072.27074 -5078.05202 -5070.48677 -5062.47930 -5066.88379 -5065.56765 -5060.04068 -5053.69085 -5037.09470 -4985.87168 -4775.58165 -4578.19445 -3798.60324 -2747.09249 -1909.57177 -1295.45927 -1142.06224 -1087.59823 -1083.48718 -1085.15505 -1002.58370 -956.82419 -906.04086 -875.36971 -688.42105 -526.19087 -451.47915 -426.41673 -344.22220 -326.58660 -261.36960 -235.82220 -227.64184 -201.92381 -166.93598 -117.16086 -95.25660 -92.83842 -35.73775 -16.14204 14.48325 32.26573 47.44916 93.15962 91.63735 130.14367 193.23277 239.09111 299.61136 321.79761 327.43640 293.79428 280.70541 275.14658 274.97491 271.46775 263.47901 276.09188 287.44333 289.12113 286.95155 274.09253 284.91418 282.32284 298.36244 298.25441 316.69621 348.93755 363.74560 377.12745 394.86751 427.70889 438.61884 476.98673 485.89103 509.04092 500.12291 495.17283 459.90662 417.19192 416.45093 415.96955 343.49419 270.26257 270.26612 258.02437 217.67952 167.63895 172.19440 117.28921 114.61417 89.82702 53.93255 25.14803 -42.96321 -77.28820 -103.18784 -166.32551 -330.12137 -755.34230 -928.70950 -1292.09098 -2598.37306 -4091.58146 -4691.56758 -4842.97564 -4872.55298 -4892.02199 -4899.35653 -4880.33284 -4671.61325 -3793.62618 -3317.21138 -3193.53503 -3183.99184 -3176.36788 -3189.98841 -3205.15659 -3218.06670 -3231.90106 -3236.36046 -3255.42751 -3250.19497 -3254.98524 -3262.42989 -3263.43243 -3278.50585 -3278.47140 -3279.88059 -3285.56105 -3301.12356 -3303.96417 -3320.94095 -3327.71853
-5090.41682 -5092.31192 -5087.85716 -5095.30118 -5087.67455 -5083.20149 -5087.97839 -5087.28842 -5089.10972 -5078.85498 -5080.57912 -5078.69758 -5068.22419 -5073.60487 -5061.13922 -5070.54659 -5061.51745 -5063.26965 -5052.92927 -4977.09913 -4846.20314 -4059.40867 -2942.79249 -2036.83783 -1432.28397 -1282.02495 -1232.61297 -1194.57565 -1172.74773 -1127.42548 -1100.37902 -1118.16404 -997.02116 -889.19922 -715.77714 -635.07927 -499.83496 -455.54963 -359.31795 -298.61345 -275.61909 -256.15631 -207.80212 -170.11350 -142.10713 -118.21846 -102.21150 -56.60249 -18.95720 -7.48474 27.14561 44.79918 90.33621 116.04761 159.49983 224.97617 228.67508 330.85501 354.21707 341.24560 290.12231 261.88369 249.32678 248.35310 250.82996 251.96421 251.56834 264.10160 275.61567 259.72823 275.84971 265.74469 271.30113 274.98573 290.85714 303.06952 328.13012 337.41970 367.34451 368.03447 405.79093 418.09268 445.86762 463.43101 497.31444 481.58208 455.56982 447.07928 421.66567 540.19785 626.56131 482.31597 257.95305 244.32963 217.84602 198.28471 166.22487 123.23908 78.33042 59.03443 40.92739 28.79704 -31.33826 -66.69668 -96.27659 -146.55673 -235.41357 -410.19827 -690.25919 -1182.09500 -1662.25977 -2837.62451 -3988.06298 -4737.43506 -4845.43517 -4883.31681 -4897.01476 -4913.53993 -4873.26005 -4744.70148 -3841.56386 -3278.87166 -3203.18383 -3196.00678 -3190.76935 -3192.34527 -3201.06742 -3227.15312 -3238.88577 -3240.57189 -3251.49797 -3255.67769 -3265.66160 -3259.39196 -3272.32576 -3279.15743 -3284.45097 -3284.13392 -3301.89903 -3301.77006 -3300.53468 -3319.69804 -3321.26948
-5095.82289 -5096.18651 -5096.40842 -5095.52074 -5088.91989 -5090.27312 -5092.20934 -5099.76969 -5085.54392 -5095.98023 -5087.22318 -5082.81956 -5083.33198 -5076.78958 -5074.56177 -5070.00110 -5062.56905 -5066.85174 -5060.35446 -5030.95447 -4714.02258 -4206.87790 -3057.77395 -2107.02593 -1461.15845 -1326.22717 -1281.62128 -1251.49091 -1248.46860 -1297.13197 -1236.44236 -1330.64630 -1199.47585 -1015.19426 -884.64879 -768.73613 -639.98336 -608.52545 -392.31664 -366.28973 -326.55868 -310.67914 -249.95231 -216.31398 -156.62181 -133.55335 -106.25798 -74.57930 -55.59645 -13.30045 23.06207 31.33129 80.29028 131.57054 192.23944 246.92391 288.12191 337.73114 345.35860 307.22263 267.55738 240.48927 238.14211 241.32926 236.47382 246.77781 236.81314 240.11067 234.23560 236.25613 246.94231 258.39200 257.91327 267.79875 275.15485 292.02059 302.88385 321.21572 355.12186 361.17676 383.73222 401.85236 423.55445 449.99895 475.45256 471.43668 438.61255 422.85958 393.45763 507.06333 560.99411 357.22898 252.84659 210.62865 204.03212 161.43240 144.01930 104.51809 100.50470 36.54430 -8.43867 -36.02558 -55.37953 -90.83470 -133.53884 -240.86798 -346.67113 -538.47956 -834.95778 -1149.11455 -1721.13403 -2682.98313 -3936.98649 -4426.37987 -4786.96264 -4850.32662 -4886.78611 -4903.03642 -4772.20912 -4469.66062 -3833.52726 -3318.04763 -3238.70616 -3191.61176 -3181.34103 -3196.65932 -3211.75170 -3225.17914 -3245.99835 -3250.71158 -3244.36124 -3259.21300 -3266.91718 -3259.41804 -3272.31630 -3278.57823 -3280.07442 -3285.61287 -3295.18694 -3300.03065 -3317.82403 -3330.06272 -3326.15443
-5103.70212 -5098.49025 -5103.76939 -5097.19432 -5100.81327 -5103.06124 -5098.96895 -5096.50354 -5100.00603 -5091.69756 -5090.37476 -5094.00767 -5092.32476 -5088.53205 -5081.56004 -5076.43577 -5080.43737 -5080.17786 -5065.46261 -5022.55742 -4518.08429 -4121.71522 -2972.22422 -2075.98981 -1646.07049 -1446.74883 -1582.08520 -1497.64497 -1422.24879 -1608.35187 -1461.09902 -1541.58247 -1385.70091 -1164.33319 -997.72118 -929.03908 -813.99480 -724.78830 -627.43416 -517.41369 -450.18039 -401.01021 -293.18820 -243.24070 -187.00718 -162.73092 -139.51654 -90.06561 -66.97193 -34.42319 19.32104 56.34162 94.33900 124.72979 180.51290 255.80627 297.36496 319.75376 277.00299 257.61408 232.43593 202.50419 220.74128 223.46244 210.78370 205.55933 214.46911 229.21846 212.52124 229.65462 233.02816 236.30120 244.10295 240.24793 262.43008 268.69539 288.49726 310.68333 316.20977 329.99565 375.63317 389.99187 417.05928 424.98726 435.58810 435.42608 432.32538 392.06063 376.57014 327.89893 374.50374 239.35698 231.33088 154.64964 140.96489 116.81084 113.26095 77.23425 58.80128 26.64707 -33.42425 -72.17071 -92.16136 -97.39461 -186.89834 -305.08534 -471.36716 -728.21096 -1089.89933 -1393.11091 -2216.32920 -3004.05393 -3986.65632 -4418.30068 -4650.64367 -4804.68525 -4859.60813 -4884.50615 -4648.84344 -4233.78788 -3845.86567 -3419.78581 -3216.59369 -3168.83531 -3153.56770 -3174.20329 -3206.83625 -3231.91010 -3239.27477 -3251.50110 -3256.18114 -3252.46999 -3260.56011 -3257.43746 -3272.19356 -3269.20385 -3279.31238 -3282.71602 -3290.19496 -3298.72423 -3313.88823 -3322.90855 -3326.99440
-5114.01477 -5114.05911 -5102.53046 -5109.92093 -5110.44740 -5112.69481 -5110.29523 -5106.64340 -5104.06964 -5102.03456 -5110.46444 -5099.00061 -5099.07692 -5098.05808 -5102.56514 -5090.15441 -5093.77076 -5073.24634 -5065.95118 -4940.96382 -4640.11805 -3699.78464 -2785.89080 -2045.50751 -1872.43136 -2049.19255 -1940.01046 -1915.16937 -2166.46108 -2084.06868 -2296.97424 -2379.74096 -2082.99541 -1239.09233 -1093.81466 -960.90828 -853.21348 -808.94760 -759.20591 -720.61416 -630.25803 -427.55269 -327.30072 -246.21260 -228.59757 -167.05186 -138.76659 -105.72098 -80.36383 -42.73007 -0.98997 43.24617 124.47370 182.67689 233.98529 241.53540 234.40149 240.15038 230.60798 216.38384 199.72855 188.38700 190.80964 179.81054 192.73946 191.66905 199.49653 204.59263 213.59207 225.50011 212.93112 213.70878 218.22872 223.74048 233.53054 260.30954 255.89285 285.14451 292.35225 304.28392 328.10657 350.27953 390.72402 420.93480 414.98161 422.54977 398.23066 402.23882 383.94256 494.24630 459.27051 202.92728 206.06524 155.35961 127.03916 98.42066 74.41314 50.74891 3.23572 -32.75050 -50.62963 -83.24910 -132.14753 -149.18190 -350.43356 -414.41578 -713.80975 -863.50206 -1118.76227 -1473.42863 -2554.49986 -3641.17489 -4232.57163 -4634.43742 -4758.36001 -4804.39415 -4852.56493 -4875.74185 -4582.02022 -4176.93459 -3740.04327 -3316.24741 -3221.31769 -3157.69402 -3153.69955 -3167.81156 -3217.33754 -3232.84275 -3238.03828 -3253.15006 -3252.81183 -3265.58503 -3260.81136 -3269.58477 -3276.32572 -3277.80627 -3279.43866 -3286.39789 -3293.62657 -3297.06094 -3310.73196 -3320.24927 -3326.70377
-5121.39984 -5113.43764 -5112.94665 -5114.56411 -5108.62751 -5112.87120 -5108.95349 -5109.33009 -5114.38315 -5102.65804 -5105.61710 -5107.64604 -5104.20369 -5103.75707 -5104.63657 -5097.45576 -5089.71224 -5093.12578 -5064.61462 -5012.05097 -4644.72492 -3997.12746 -3103.33039 -2606.83913 -2540.92458 -2612.84195 -3002.31885 -2866.68395 -2882.24415 -3043.67580 -3452.81175 -3312.98163 -2453.79925 -1612.38053 -1162.88509 -967.32846 -895.47690 -837.79175 -785.55401 -760.62483 -731.88153 -625.79517 -516.42417 -292.60133 -233.25912 -174.64577 -140.11649 -118.14760 -62.48448 -50.30922 15.95228 59.28554 148.76017 224.02316 243.60726 216.11323 166.72386 154.08454 180.79729 174.95983 166.89400 161.57691 157.92368 161.88887 177.48851 178.09431 189.46903 190.91033 206.28762 195.50618 201.85039 208.77817 211.65989 206.57079 210.20328 227.59203 246.67783 253.18125 272.88023 286.11908 305.23580 343.24959 368.49485 386.02346 405.43903 410.83181 390.41250 395.00418 488.11478 551.65501 380.39534 169.77290 139.66170 140.92085 108.37428 61.85979 15.96452 5.13447 -14.35875 -78.54206 -118.30628 -171.78135 -199.64566 -281.56332 -437.30837 -609.12551 -875.86589 -1149.93777 -1338.20351 -1910.33126 -2686.02103 -3748.44145 -4434.46332 -4679.60479 -4806.76895 -4841.04185 -4867.30552 -4849.09364 -4291.01438 -3680.58723 -3528.33941 -3320.45274 -3190.13772 -3138.44091 -3148.75672 -3177.60246 -3214.63705 -3238.55513 -3242.15360 -3254.72485 -3260.66176 -3268.26216 -3261.91071 -3265.54231 -3270.20913 -3269.26794 -3279.06220 -3282.17065 -3280.00795 -3301.24411 -3310.12364 -3329.80212 -3331.34583
-5127.29602 -5115.61476 -5124.75636 -5127.68291 -5129.00432 -5129.41431 -5114.63062 -5120.00767 -5115.16972 -5113.26415 -5114.69626 -5111.12645 -5112.34233 -5098.61647 -5097.43242 -5103.27923 -5093.15795 -5104.08806 -5082.27864 -5042.70465 -4790.55214 -4420.48467 -3947.46069 -3703.82433 -3651.56122 -3919.31343 -4107.75702 -4286.10872 -4252.20395 -4355.83682 -4230.05715 -4712.88697 -3252.98281 -2044.45008 -1176.01022 -1074.13171 -986.39597 -861.17839 -815.45364 -848.76833 -867.99045 -724.00595 -530.73517 -343.63993 -249.55297 -200.04334 -160.24688 -135.30139 -80.62444 -46.77786 9.55632 86.04304 182.46455 224.72252 177.53325 132.25559 115.45668 111.56488 126.75082 136.73132 156.67985 143.31156 145.65505 148.00057 155.75446 151.06790 163.79004 168.37834 167.68140 189.73237 184.49311 185.50281 186.55148 197.88595 205.40927 207.00855 218.58778 235.71590 253.88018 276.97113 306.67444 332.40884 339.32059 358.61251 373.07144 366.38228 368.91404 443.43086 565.27553 490.34481 223.99120 161.56618 112.88534 89.38672 76.97560 43.62276 6.43649 -46.20837 -73.83487 -84.89984 -125.83561 -213.80734 -304.76597 -590.09625 -683.59547 -812.22593 -1087.31211 -1444.19962 -1847.95037 -2841.67411 -3945.85547 -4170.82971 -4614.89697 -4731.86913 -4819.40555 -4854.07472 -4903.07023 -4804.63107 -4531.04995 -3850.64241 -3575.57911 -3269.93387 -3146.46988 -3126.58922 -3157.63342 -3187.91719 -3212.10325 -3239.76509 -3247.97074 -3247.77189 -3260.69922 -3267.16868 -3264.66366 -3268.39056 -3270.82591 -3271.77586 -3284.44474 -3290.96166 -3295.24042 -3296.42355 -3313.06729 -3322.46820 -3322.69079
-5126.96847 -5128.88615 -5122.30323 -5124.05050 -5126.64969 -5131.66119 -5122.88173 -5122.75720 -5119.56362 -5122.75726 -5120.42143 -5120.20643 -5120.33021 -5119.87566 -5111.74355 -5109.11112 -5105.75861 -5100.71226 -5090.85062 -5082.98494 -5004.92850 -4715.29709 -4677.43598 -4589.17622 -4418.10778 -4632.85489 -4683.92805 -4712.13051 -4730.53855 -4801.04477 -5024.20406 -5045.55424 -4263.29879 -2394.67222 -1506.35946 -1272.41147 -1073.50765 -921.38621 -889.83548 -901.88460 -870.77393 -779.20791 -513.38909 -396.44308 -290.80009 -207.98156 -179.21324 -147.43664 -103.60084 -58.81468 -17.18664 74.14165 144.14860 175.58182 125.05463 76.92895 92.65535 91.88409 96.29658 100.00483 107.68634 114.56005 130.28693 137.29271 133.75471 144.61567 155.96971 154.92876 169.67035 156.23124 179.42507 183.54588 189.06372 197.62156 182.57653 196.74741 209.90657 215.17322 230.37883 266.97026 289.98855 302.29195 299.24211 327.34845 329.37880 328.87789 333.14468 366.38131 453.51813 334.06383 130.00127 114.13630 54.06589 44.34708 38.91838 8.06257 -42.47346 -59.36261 -117.67048 -116.93642 -200.24704 -360.74118 -571.53986 -881.03512 -900.31791 -1162.01330 -1434.53128 -1737.29328 -3669.49800 -3776.47475 -4555.45095 -4661.10628 -4597.06382 -4715.14500 -4855.04840 -4886.32005 -4892.10176 -4861.75448 -4581.39766 -4194.56304 -3703.77404 -3225.20781 -3108.74227 -3122.55206 -3162.62289 -3190.73807 -3218.47193 -3246.19339 -3256.22776 -3256.74936 -3258.02923 -3270.88761 -3272.30905 -3277.00378 -3278.51324 -3268.48759 -3289.90768 -3288.08568 -3286.83113 -3307.40113 -3308.79630 -3335.55050 -3335.21608
-5125.80493 -5132.39526 -5141.88376 -5138.00228 -5139.93601 -5131.56383 -5137.57321 -5131.08912 -5137.19102 -5127.00479 -5129.88767 -5125.18882 -5126.18913 -5120.19810 -5116.14672 -5113.61094 -5119.42384 -5097.75627 -5096.49616 -5092.89815 -5096.62890 -5012.61218 -4963.65467 -4912.54231 -4939.79796 -4989.85480 -5015.44833 -5024.96564 -5023.61138 -5039.95769 -5109.08191 -5110.52155 -4582.42008 -3776.97778 -2003.11981 -1394.10098 -1238.87796 -1024.45438 -988.05780 -1003.85951 -894.07490 -824.18116 -641.28264 -519.05977 -401.03142 -234.76247 -197.37734 -149.63329 -99.49025 -67.89534 -28.35581 47.76129 52.77238 80.98564 69.99505 66.95255 63.54789 48.96543 73.17015 85.28230 84.35353 93.46425 86.97899 100.72596 112.30068 116.48977 145.36676 154.51092 165.54447 152.23045 171.71214 166.61119 171.79978 173.14850 179.30144 167.29649 183.79039 200.06475 227.59485 236.80721 266.02125 283.68980 289.67830 298.48003 304.62220 313.38730 317.41155 358.30016 286.77270 142.11658 96.41102 88.25939 53.49745 25.50673 -3.73187 -24.14946 -82.43035 -100.81058 -143.11074 -208.98064 -318.68013 -617.90255 -916.04058 -1303.41862 -1206.46948 -1628.45345 -1996.49589 -3489.27076 -4532.50587 -4613.96372 -4923.17119 -4937.18825 -4808.27452 -4527.55400 -4612.20406 -4801.26410 -4942.95181 -4840.58390 -4898.73961 -4616.88204 -3696.96063 -3177.50517 -3092.02166 -3124.32907 -3145.27000 -3203.67395 -3224.38439 -3242.06371 -3254.94188 -3258.41006 -3263.42294 -3265.70444 -3274.71698 -3269.96091 -3276.45487 -3268.08488 -3282.83500 -3286.81352 -3290.95144 -3299.90053 -3311.03559 -3321.01050 -3332.98680
-5135.38412 -5148.52025 -5138.76855 -5139.35671 -5135.86834 -5140.64425 -5138.34664 -5149.61469 -5135.34721 -5141.98420 -5138.09702 -5132.06489 -5131.51187 -5131.89638 -5127.20519 -5127.05589 -5118.92580 -5117.87686 -5117.51221 -5104.67020 -5104.14251 -5082.26452 -5078.25084 -5073.57190 -5069.84907 -5043.98191 -5065.54287 -5058.35392 -5050.80780 -5068.20383 -5094.59407 -5114.37613 -4752.27899 -3917.09282 -2541.03132 -1842.94073 -1422.89079 -1223.96790 -1163.12513 -1060.50329 -975.53469 -923.11469 -843.13298 -590.17283 -496.33471 -281.54899 -215.13831 -160.13000 -120.66680 -95.13873 -47.41968 13.56685 13.87303 10.06263 11.34147 22.17468 36.17434 32.57770 8.71541 44.91549 33.59579 47.15952 67.43364 80.35607 98.01522 105.84858 129.19319 147.90914 151.47175 152.53647 152.65940 145.48126 147.62081 156.57978 153.71541 162.55729 166.17258 179.74601 192.30170 227.28680 237.11372 265.68083 270.99792 275.04122 272.44737 262.80299 332.94643 437.23934 279.32036 95.21640 55.28772 42.15520 28.70663 3.97773 -16.29389 -46.73588 -118.47449 -163.30782 -216.12323 -329.86153 -499.66532 -1212.21084 -1631.75206 -1604.56366 -2688.80527 -2547.52546 -3610.10296 -4679.20979 -4889.45776 -5071.12754 -5066.17604 -5001.63556 -4984.55168 -4603.70202 -4596.61043 -4819.68121 -4971.32393 -5164.26842 -4856.71701 -4236.00093 -3491.13893 -3146.33066 -3090.42524 -3114.58019 -3185.48819 -3207.70850 -3229.12155 -3246.66855 -3254.97678 -3261.68032 -3270.57460 -3269.88274 -3269.20865 -3261.10535 -3279.14944 -3276.78749 -3269.95214 -3280.86001 -3294.02880 -3297.25305 -3308.09302 -3333.71086 -3329.93073
-5145.14201 -5162.50016 -5142.57525 -5150.81677 -5150.26642 -5153.07789 -5145.65400 -5146.26118 -5141.68217 -5143.70252 -5140.93372 -5132.49533 -5141.84791 -5138.36973 -5129.57556 -5125.78655 -5132.51960 -5124.27513 -5127.63919 -5121.65344 -5122.40112 -5112.31246 -5106.00687 -5107.49508 -5091.58203 -5090.48044 -5085.81286 -5076.91501 -5060.64875 -5071.83719 -5091.33217 -5110.32637 -5094.96473 -5057.81190 -3625.23025 -2593.35709 -2032.84778 -1520.98282 -1343.70114 -1154.26096 -1020.53326 -917.63249 -828.06416 -645.73906 -428.56469 -333.15703 -248.64909 -188.93071 -131.49667 -111.45900 -84.73035 -30.70793 -33.03583 -52.31702 -17.80019 -17.75450 -6.94721 -5.40524 12.38199 20.78750 14.48492 17.14554 43.58433 53.48295 74.40576 96.22072 117.53260 131.93009 137.10627 140.19270 141.53103 138.59902 145.91928 137.83634 127.83172 142.23137 144.61867 162.75453 183.96124 192.80182 203.99736 230.94747 237.26426 241.50507 249.73787 231.25647 251.45461 363.48150 259.80140 89.63968 43.01401 -1.62324 8.60458 -23.94355 -71.78105 -88.90946 -118.64561 -230.64052 -570.37867 -1040.09435 -1103.51458 -1987.00473 -2094.76135 -3453.26523 -4554.78875 -4408.89232 -4364.36209 -5054.52908 -5238.62336 -5243.21226 -4897.20803 -5004.89280 -4966.54129 -4821.76671 -4289.49186 -4461.96866 -4659.44384 -5104.53386 -4951.40193 -3732.49122 -3232.65132 -3099.05382 -3104.89782 -3155.45795 -3195.88499 -3213.21151 -3240.59264 -3255.25375 -3252.25647 -3266.44945 -3273.96248 -3266.16722 -3275.61301 -3268.69503 -3273.11353 -3276.55321 -3276.21779 -3287.38856 -3291.75134 -3305.69009 -3316.73068 -3340.36247 -3330.59129
-5159.42505 -5160.78723 -5156.87056 -5158.10795 -5162.10279 -5154.04256 -5153.17471 -5154.66106 -5151.32797 -5153.56219 -5149.12158 -5152.63526 -5147.39631 -5150.23884 -5143.78798 -5145.47860 -5135.12857 -5132.12300 -5122.69019 -5135.66841 -5131.18169 -5123.83742 -5119.98600 -5109.86488 -5104.29954 -5100.50189 -5104.72510 -5094.20771 -5074.97901 -5081.48497 -5088.55756 -5083.44730 -5118.98986 -5093.02362 -5041.16842 -4326.29386 -3298.26595 -2147.78601 -1575.34604 -1150.55073 -978.07221 -915.20290 -806.48062 -698.24833 -460.94835 -363.06592 -306.47803 -222.04433 -158.10507 -142.94889 -104.22130 -103.60528 -85.39871 -64.63103 -64.61865 -69.76552 -62.73866 -37.87136 -27.23154 -22.61577 -3.32868 -1.16687 18.08258 44.13753 51.90970 80.59462 122.10899 138.51568 139.01907 135.99420 137.95056 137.06845 131.83854 127.53869 117.56058 139.35936 136.82127 137.35263 149.16252 178.40723 204.57568 210.80978 211.55198 218.01076 220.37395 205.27461 187.48897 203.62032 114.24428 52.90935 21.56453 -25.54939 -49.68310 -53.85575 -109.60040 -124.99496 -247.88392 -623.73972 -1245.61796 -1880.17590 -2496.24268 -3380.06479 -4247.29246 -4791.82039 -5169.49573 -5183.60304 -5228.43200 -5324.96716 -5120.51321 -5263.56085 -4893.06091 -4137.46647 -3121.87411 -3179.33659 -2929.31434 -2889.63784 -3865.06625 -4510.07519 -3917.17148 -3375.40857 -3095.49474 -3083.67159 -3109.92824 -3140.07966 -3189.40157 -3220.04054 -3248.39508 -3254.41564 -3260.51943 -3266.82467 -3263.77205 -3275.17931 -3275.52550 -3267.97519 -3273.86872 -3276.43913 -3284.27172 -3286.39520 -3290.64741 -3291.91449 -3314.29254 -3331.44810 -3346.21020
-5167.19612 -5165.19115 -5159.81991 -5160.92681 -5168.73937 -5164.71277 -5157.36527 -5154.99078 -5161.04194 -5156.04577 -5159.90917 -5161.29324 -5163.53633 -5155.64961 -5154.46423 -5151.29500 -5153.72732 -5149.31696 -5144.95794 -5142.69406 -5143.50009 -5132.42922 -5136.49936 -5128.39489 -5127.16033 -5112.66718 -5115.25380 -5090.84305 -5094.55890 -5081.76388 -5082.77147 -5084.59038 -5095.94735 -5084.58800 -5050.06462 -4765.60525 -4244.27012 -2650.52172 -1891.72376 -1071.35224 -975.14120 -918.31629 -860.49507 -735.72941 -529.16433 -395.52882 -296.59804 -240.40281 -221.49716 -179.10945 -140.42578 -136.37072 -127.06887 -90.91976 -81.30661 -93.14956 -88.98372 -65.79669 -54.63371 -48.68049 -35.70252 -17.17675 -10.51670 15.96194 23.74868 59.02031 89.98706 128.37258 146.11661 142.17726 140.64893 141.43719 114.93506 105.46657 111.36703 113.40832 124.13153 129.94354 141.43815 158.67195 188.33497 204.05329 195.15394 202.44301 191.80563 177.96716 142.99169 185.72361 123.59380 37.20047 1.97866 -47.47387 -67.53806 -145.87716 -286.63773 -342.63871 -1003.05238 -1089.19413 -1827.34461 -3462.20879 -4387.36430 -5235.32795 -4937.79734 -5214.08160 -5201.99814 -5249.29142 -5321.92805 -4959.07858 -3299.12902 -2346.69542 -930.26193 -708.13190 -948.03856 -982.33624 -1127.52411 -1616.66030 -2970.32030 -3221.30951 -3140.60697 -3077.04659 -3063.45990 -3067.13926 -3124.39351 -3170.48851 -3209.38284 -3236.22370 -3248.19980 -3258.66468 -3266.92557 -3269.14153 -3272.49564 -3270.65601 -3277.21691 -3275.93850 -3270.52940 -3274.30040 -3272.87815 -3285.93950 -3284.19201 -3299.59867 -3323.95125 -3338.21521 -3339.82406
-5171.95827 -5173.11795 -5169.12047 -5172.61307 -5166.25724 -5168.93314 -5176.86046 -5175.23996 -5173.60337 -5173.29152 -5167.31487 -5167.60476 -5163.23164 -5171.11429 -5170.73014 -5168.91238 -5158.49389 -5157.35833 -5153.65974 -5162.13380 -5149.41960 -5145.96797 -5141.04801 -5140.32154 -5132.16769 -5130.91736 -5119.85977 -5122.70966 -5106.18656 -5092.74376 -5081.55530 -5080.79220 -5077.95763 -5073.37000 -5065.66349 -4957.37747 -4236.47305 -3067.64884 -1946.50350 -1267.00903 -991.18408 -933.18658 -868.95735 -835.83894 -689.55862 -466.12513 -356.40435 -274.07988 -251.86747 -200.26590 -182.32174 -184.62412 -153.56837 -149.75729 -121.64682 -103.73233 -126.44526 -97.04136 -81.90043 -70.68117 -69.32259 -60.99761 -38.44967 -10.55605 9.67474 19.12429 74.65820 137.06537 155.13446 140.46565 139.23497 126.81019 106.74843 90.09687 91.31699 98.33628 102.15348 127.07851 126.96296 139.93935 147.11818 164.47551 174.00714 185.51798 176.66356 166.45925 139.38538 106.99325 32.76905 4.22657 4.98706 -58.23341 -126.30998 -203.59530 -516.84383 -1041.66518 -2217.16314 -2956.75941 -3397.14040 -4631.06154 -4956.63411 -5272.27241 -5344.14962 -5312.57239 -5287.46376 -4759.42732 -4047.05112 -2666.97182 -824.66808 -533.14202 -532.88867 -98.32433 -120.22107 -114.82511 -140.38891 -856.84785 -2257.73322 -2931.07060 -3008.88982 -3022.21304 -3023.38518 -3060.48430 -3130.63116 -3176.39554 -3209.39511 -3246.06373 -3251.46189 -3262.88761 -3272.01885 -3270.68554 -3266.72745 -3277.73769 -3266.77146 -3272.58427 -3276.37036 -3273.25347 -3269.42378 -3274.95045 -3285.38024 -3292.73664 -3316.33389 -3332.00343 -3339.36855
-5179.24824 -5180.47388 -5183.64685 -5172.64620 -5183.26234 -5174.01241 -5168.24313 -5187.26465 -5176.33190 -5180.72969 -5184.78479 -5175.12631 -5169.39745 -5171.46158 -5180.60235 -5171.75442 -5183.66522 -5181.02252 -5167.37299 -5177.61498 -5169.77986 -5177.92450 -5164.06025 -5157.57192 -5152.09366 -5149.66653 -5150.40470 -5140.43561 -5142.50605 -5124.71782 -5105.85550 -5095.94751 -5082.58363 -5071.14645 -5066.10534 -4895.36977 -4543.62063 -3213.93164 -1940.57913 -1334.99083 -1077.96696 -999.53636 -903.35777 -867.66966 -776.79554 -569.85118 -410.27837 -327.57059 -306.01624 -288.46335 -250.78986 -245.00680 -191.14458 -159.27553 -165.49108 -165.19952 -156.62385 -120.26434 -107.75124 -100.84328 -102.08339 -76.68095 -59.52672 -49.20683 -18.01556 26.59355 50.04728 122.49393 161.72265 159.01932 141.68338 112.97361 86.35374 90.16916 78.76492 81.17336 80.73311 81.24139 119.99672 119.71233 124.72297 140.70033 168.31859 166.61931 159.92456 135.17479 146.77908 184.66212 85.86871 2.84670 -23.18618 -72.33618 -123.98484 -226.54437 -628.38631 -2145.49517 -2818.03413 -2981.68339 -3656.27038 -4144.78505 -4807.97945 -5206.76666 -5349.83130 -4982.58856 -4252.83576 -2984.78739 -1991.21308 -156.71783 -143.56470 -113.16393 -86.47073 -78.75091 -72.42374 -73.21856 -150.38049 -333.91525 -1968.28271 -2769.80982 -3001.01291 -3023.91762 -3042.88341 -3095.51972 -3148.79047 -3202.00772 -3221.11943 -3255.14728 -3261.49678 -3280.57254 -3277.92864 -3278.27176 -3272.29098 -3280.00854 -3277.65763 -3274.87346 -3273.35826 -3278.61912 -3272.33916 -3286.83104 -3277.14014 -3303.35823 -3320.04916 -3336.25982 -3334.86381
-5187.42238 -5188.70986 -5195.97883 -5192.29034 -5189.55914 -5195.77987 -5191.42963 -5201.13943 -5197.41955 -5192.42575 -5198.63665 -5193.37366 -5194.07828 -5191.09127 -5190.37829 -5194.33202 -5193.64730 -5189.07214 -5185.92432 -5197.73533 -5188.09538 -5187.85007 -5184.78889 -5172.86256 -5172.97132 -5170.79775 -5170.63309 -5163.02631 -5144.56095 -5143.27140 -5132.34495 -5123.77378 -5110.82333 -5090.75577 -5066.89048 -4978.86861 -4560.78230 -3878.92644 -2750.04134 -1803.58879 -1212.30996 -1034.33411 -967.01309 -897.00927 -819.06093 -654.59724 -453.35265 -422.61253 -372.82442 -342.29557 -347.99767 -305.05938 -253.51804 -261.02983 -196.47568 -185.91127 -176.11575 -150.52631 -148.85961 -138.63337 -130.00026 -109.18697 -88.49816 -64.40809 -62.50716 -15.40259 21.56317 83.38335 107.01659 132.94340 155.60929 103.11634 85.14651 57.15349 50.02440 59.70306 56.91374 60.22937 88.04532 105.48813 115.67429 119.43638 131.71596 132.14676 143.90156 122.62985 88.69579 188.07948 142.63403 -12.13275 -69.87139 -110.12740 -258.36670 -539.25568 -916.51516 -1456.52710 -1673.84833 -2501.77766 -3022.07117 -3771.89868 -4688.42531 -3227.48114 -2717.52020 -1644.31969 -1328.46924 -206.47981 -162.49622 -128.28711 -108.25378 -69.31221 -54.25962 -54.67158 -56.70395 -89.01167 -130.81830 -297.39141 -2027.70089 -2858.01392 -3005.19398 -3041.77012 -3068.15604 -3118.16251 -3169.19037 -3214.46851 -3236.01392 -3258.23875 -3274.96990 -3279.24030 -3286.54352 -3295.98504 -3290.93024 -3295.03029 -3289.35145 -3277.44579 -3282.72239 -3273.85604 -3284.40274 -3280.60858 -3292.16965 -3309.30161 -3326.65188 -3333.86102 -3344.88205
-5199.80884 -5197.10561 -5197.88932 -5197.73783 -5196.01427 -5195.55686 -5201.03108 -5199.72352 -5210.95736 -5205.15883 -5197.13675 -5210.70838 -5206.52098 -5208.24558 -5207.11020 -5208.01183 -5214.35736 -5215.86259 -5205.34141 -5199.74842 -5203.68435 -5198.82483 -5199.77255 -5197.69832 -5190.32551 -5183.56925 -5180.48264 -5168.21894 -5168.60652 -5159.75425 -5147.21867 -5135.50256 -5122.80806 -5114.79370 -5102.51275 -5037.69981 -4821.95957 -4068.48404 -3065.23799 -2379.38434 -1569.21489 -1197.12738 -1038.84199 -938.36336 -885.59746 -839.58897 -692.45272 -516.90530 -519.10861 -513.58389 -526.18539 -405.46969 -393.26492 -357.34924 -270.94965 -238.06747 -219.11276 -216.88946 -207.01400 -190.27268 -171.89212 -135.57334 -107.50501 -97.96677 -72.76017 -40.97937 -2.41989 40.98858 70.47889 61.54924 131.10467 79.19538 59.88504 40.44287 33.76166 45.01449 42.13682 47.72938 58.14215 63.78096 93.40687 109.05127 115.19296 117.36082 124.86245 89.83352 48.49706 73.84446 106.21719 -11.52413 -124.72935 -162.20120 -257.19751 -588.59811 -846.78553 -1123.63104 -1224.19328 -1808.05040 -2827.03434 -2245.66541 -1336.51131 -342.74258 -403.27269 -363.63235 -176.63320 -137.89294 -89.65111 -70.97575 -63.86967 -56.30295 -45.14721 -51.86914 -67.40531 -89.46688 -154.42395 -697.37248 -2145.14435 -2969.00150 -3002.39921 -3061.29572 -3113.86030 -3149.39200 -3188.63400 -3232.47660 -3268.65345 -3268.25621 -3280.91761 -3287.89758 -3293.26127 -3290.78717 -3296.22741 -3299.23858 -3297.97234 -3296.98378 -3292.65004 -3299.78833 -3288.40419 -3285.02467 -3294.46195 -3301.93245 -3322.59166 -3345.21312 -3341.23941
-5212.03081 -5206.84579 -5201.19522 -5204.95434 -5209.39043 -5201.99219 -5217.47561 -5208.04873 -5218.49238 -5222.27327 -5223.20257 -5218.02549 -5223.30002 -5229.31700 -5222.81026 -5213.51234 -5219.17122 -5222.53846 -5223.21479 -5219.12316 -5216.63292 -5216.53010 -5213.76449 -5218.03706 -5216.15249 -5209.53584 -5202.49909 -5202.61550 -5196.99192 -5183.73653 -5168.65492 -5159.84842 -5156.60446 -5136.77551 -5128.93652 -5086.04784 -4944.53487 -4477.99315 -3763.32940 -2709.27734 -2084.80911 -1406.80597 -1162.49294 -1026.88136 -984.95793 -836.38606 -789.29294 -763.39489 -751.09878 -692.47138 -702.01527 -667.94205 -588.66927 -524.52373 -398.16793 -345.74665 -308.10433 -337.51718 -280.30381 -242.52148 -193.18525 -165.26046 -147.50916 -127.27540 -99.04945 -76.33408 -68.48479 -24.76106 -1.95513 50.32362 35.89764 24.79413 31.79719 22.89173 28.86553 20.43947 25.53687 33.11175 47.16105 57.99486 73.16042 81.75583 83.58378 91.69969 92.19014 78.40356 37.90806 24.57218 -4.73378 -59.01443 -134.99523 -205.52132 -318.86218 -458.97422 -587.72837 -681.93412 -912.14139 -1517.18157 -1419.29928 -784.23469 -238.02153 -156.47669 -144.02230 -159.80338 -115.49106 -59.73625 -57.79388 -54.31009 -61.88648 -65.04116 -65.38470 -82.83320 -99.80268 -108.67530 -169.25569 -751.64078 -2236.62416 -3000.91049 -3046.63676 -3095.49571 -3114.37980 -3165.54761 -3208.70469 -3249.53823 -3270.96365 -3278.80917 -3295.99358 -3299.22985 -3307.65717 -3303.62924 -3305.78157 -3309.02608 -3297.07805 -3307.34702 -3310.16099 -3295.38969 -3297.09532 -3310.80320 -3301.54069 -3315.45390 -3322.52691 -3345.08076 -3341.41842
-5214.49107 -5221.37948 -5217.59308 -5224.44080 -5224.36548 -5223.89192 -5228.77279 -5226.03749 -5233.57066 -5227.14654 -5235.06155 -5233.69002 -5234.62635 -5242.27471 -5235.90206 -5241.65662 -5235.14213 -5246.19374 -5235.95882 -5238.58870 -5245.03786 -5245.07430 -5241.47014 -5227.23544 -5232.99821 -5229.69544 -5216.52098 -5213.33876 -5212.21337 -5217.95398 -5195.64422 -5185.95581 -5184.22492 -5153.63895 -5145.17324 -5123.53815 -5071.41607 -4804.75103 -4462.06447 -3152.51658 -2474.25841 -1814.66593 -1578.42093 -1183.91624 -1137.74369 -964.43208 -890.49763 -830.03750 -816.42868 -823.94400 -851.28797 -924.55690 -800.27821 -609.23612 -610.30748 -506.95218 -490.98236 -538.01079 -440.66492 -339.61612 -233.45279 -201.98435 -196.39599 -176.33854 -150.71773 -125.43373 -108.86933 -50.34658 -41.66172 -16.45350 -9.17481 0.22165 2.62444 6.70284 7.50064 2.50778 6.51214 10.36469 28.72807 36.85819 51.17488 57.70926 78.97276 70.86751 80.94316 62.49014 18.90774 -27.29373 -60.87270 -69.41041 -197.67859 -262.18962 -352.75188 -381.91608 -447.18574 -535.00242 -581.32321 -528.38285 -387.31475 -248.96729 -89.21375 2.16114 1.02125 -56.69612 3.12338 -14.46367 -31.24550 -41.14524 -70.99695 -74.09382 -90.46134 -105.33084 -120.60712 -397.36383 -1484.97025 -2296.83200 -3030.05389 -3038.46201 -3074.63600 -3095.30939 -3134.24428 -3180.35950 -3214.18984 -3252.44423 -3281.61719 -3288.22731 -3312.14941 -3326.98725 -3312.21181 -3328.02759 -3322.05742 -3337.24710 -3330.37045 -3322.52012 -3327.58390 -3325.12838 -3311.61142 -3321.03612 -3313.36296 -3320.42009 -3330.65327 -3350.70956 -3348.78613
-5231.92686 -5227.07382 -5230.03644 -5236.67052 -5237.24326 -5235.25541 -5231.86108 -5243.98026 -5240.67696 -5250.30357 -5246.82500 -5260.69311 -5244.87424 -5256.27032 -5256.52897 -5254.82773 -5252.49272 -5265.12161 -5258.33709 -5264.43219 -5257.04951 -5250.44880 -5250.50219 -5247.38302 -5249.59133 -5231.41594 -5246.44534 -5224.83368 -5222.37630 -5222.48593 -5212.55254 -5201.22558 -5186.51233 -5179.87570 -5174.56676 -5154.30716 -5123.27929 -5014.52613 -4557.60136 -4274.38023 -3302.95498 -2910.84346 -2091.95600 -1969.05430 -1882.49787 -1265.42390 -1089.79891 -976.07947 -897.22355 -926.11248 -961.94987 -1006.57528 -874.68874 -768.15490 -689.25944 -704.42696 -686.64926 -635.89691 -562.08881 -409.64476 -268.72558 -244.78819 -235.75717 -178.63369 -156.73339 -132.34215 -128.59845 -89.42234 -74.71031 -54.83223 -49.16492 -25.52392 -31.30443 -22.67685 -16.47541 -10.47323 4.68623 8.37086 8.77744 24.36980 20.88400 46.16448 49.39063 57.33623 37.38139 35.92355 12.41739 -26.15223 -69.57804 -130.64696 -165.34052 -285.48865 -307.91451 -315.25991 -387.49744 -385.90060 -355.08229 -311.59001 -174.55441 -59.37845 35.24530 76.68133 129.91862 133.02913 103.25147 47.46623 -33.29175 -73.04084 -101.47798 -96.16233 -134.13177 -943.56222 -1442.25056 -2090.68902 -2339.50893 -3060.35960 -3069.69733 -3040.89457 -3050.79588 -3081.71009 -3132.06052 -3173.95976 -3237.98958 -3275.83191 -3289.01202 -3320.02305 -3332.47402 -3332.65070 -3339.79517 -3344.36671 -3349.23320 -3348.15727 -3357.03087 -3357.28012 -3351.73758 -3347.97979 -3335.62094 -3334.14580 -3329.34065 -3326.01681 -3340.65483 -3346.27760 -3347.00135
-5231.43386 -5237.71986 -5239.84349 -5244.37796 -5243.05441 -5253.02312 -5259.07026 -5259.55230 -5258.34325 -5261.90145 -5267.68465 -5266.01862 -5273.58806 -5275.65230 -5281.93515 -5275.81959 -5282.41350 -5283.44164 -5274.74388 -5265.48858 -5281.10517 -5270.48719 -5273.70483 -5265.91524 -5261.08856 -5262.00077 -5256.42144 -5252.29160 -5248.79502 -5240.43596 -5232.46932 -5220.86343 -5219.47409 -5212.52043 -5186.87463 -5168.04844 -5157.86886 -5072.44875 -4916.24896 -4712.40078 -4423.48097 -4049.40606 -3289.47768 -3155.18428 -2457.25546 -1899.31771 -1384.14341 -1156.41491 -1101.41539 -1085.18509 -1061.11495 -1025.70651 -946.04549 -862.16026 -792.44658 -745.68577 -726.23923 -701.16154 -594.91743 -520.67424 -450.37182 -401.70864 -343.03405 -284.62251 -223.12590 -165.81963 -128.60660 -120.50547 -98.34755 -83.52050 -74.08770 -72.12560 -58.88485 -32.24066 -35.04279 -35.98084 -25.22919 -6.83887 -4.81741 14.25708 17.84860 23.97244 21.56721 29.08558 28.62647 26.58829 3.82724 -38.24891 -66.08934 -99.44240 -164.20959 -255.30989 -276.96233 -288.16415 -250.72538 -242.80482 -182.21164 -112.27960 -1.97721 166.35787 255.83072 360.41706 320.23963 202.60359 105.26070 6.95363 -29.44452 -94.87147 -144.56994 -389.84192 -932.42755 -1781.77157 -2296.16348 -3230.20987 -3094.51418 -3023.92201 -3006.03803 -3002.84715 -3057.98279 -3093.13820 -3164.13234 -3200.46113 -3238.54311 -3280.18267 -3321.54042 -3340.50999 -3338.08484 -3350.82503 -3357.86732 -3375.88327 -3382.49410 -3375.50307 -3383.34486 -3388.99992 -3393.84121 -3365.20290 -3359.33638 -3339.65868 -3352.47576 -3346.01625 -3334.20751 -3349.20758 -3357.05226
-5249.77720 -5254.92063 -5259.57669 -5258.36618 -5261.93375 -5276.62350 -5281.55743 -5273.61675 -5284.99872 -5283.86949 -5285.54216 -5283.61850 -5291.20729 -5288.71229 -5288.67128 -5288.94296 -5297.27890 -5296.28079 -5300.11224 -5293.97962 -5289.25568 -5287.43941 -5298.42698 -5289.70407 -5272.91027 -5280.95674 -5281.51940 -5264.93837 -5260.53189 -5262.53086 -5250.94068 -5241.73553 -5233.73535 -5222.01766 -5194.55661 -5176.89466 -5158.82143 -5133.85018 -5087.52074 -5064.13099 -4886.28790 -4763.62025 -4406.13399 -4068.23982 -3625.96701 -2898.14619 -1957.04221 -1523.46165 -1349.90275 -1330.99980 -1201.25673 -1126.75946 -1039.87852 -919.60275 -859.20368 -851.28677 -769.15844 -728.67425 -681.11684 -696.26743 -543.56318 -480.86308 -410.62237 -335.92779 -301.93920 -210.51310 -167.74489 -153.29937 -125.46186 -101.20660 -89.96245 -86.90385 -81.41824 -63.66568 -49.84198 -49.70819 -24.04164 -11.24047 -4.77769 7.04569 14.78461 13.80575 11.00882 16.70799 16.38553 16.06302 -5.97409 -16.41198 -54.31456 -93.93844 -150.64756 -208.75678 -208.56986 -240.70962 -207.81709 -127.41477 -113.54258 -64.83607 157.21721 376.43776 432.88849 608.74434 395.08503 181.68216 81.33362 -12.80737 -58.83194 -124.70875 -243.49758 -755.02337 -2469.74263 -2857.87125 -2938.41689 -3077.92117 -2951.04189 -2965.20666 -2967.78529 -3003.95997 -3060.73619 -3126.20229 -3173.98340 -3194.51407 -3281.94339 -3314.69277 -3331.83964 -3355.96447 -3370.78036 -3388.07375 -3384.41628 -3404.14792 -3408.09709 -3422.41271 -3426.66021 -3420.55421 -3420.43940 -3402.16674 -3382.37688 -3370.71328 -3359.84858 -3351.92516 -3354.97690 -3349.95654 -3358.75623
-5269.88097 -5258.98090 -5272.81855 -5276.31453 -5281.07144 -5292.39912 -5303.17609 -5300.11217 -5310.82503 -5315.33319 -5315.72570 -5311.61200 -5312.12829 -5321.07953 -5329.60925 -5322.35293 -5315.59108 -5318.66874 -5335.58741 -5330.38679 -5316.11794 -5325.49649 -5331.22691 -5310.09875 -5310.88088 -5300.49605 -5299.09346 -5295.91716 -5288.46425 -5288.96507 -5267.08966 -5263.78960 -5262.98538 -5247.13442 -5221.98903 -5219.38127 -5179.08873 -5166.13119 -5113.58544 -5083.66499 -5034.81815 -5028.32379 -4875.80259 -4730.58942 -4410.15327 -3201.32042 -2939.08179 -2234.66947 -1714.12932 -1594.60978 -1268.59902 -1184.44410 -1104.63018 -1053.41396 -976.33474 -939.00570 -856.23295 -796.39418 -808.92157 -821.40009 -679.46197 -589.71800 -503.20517 -483.63110 -388.41137 -262.73262 -214.84253 -194.55483 -145.31917 -113.47011 -104.69939 -93.58938 -102.94796 -83.28903 -73.92091 -63.31076 -37.37107 -23.40209 2.48737 3.19167 10.30200 12.48501 12.18828 11.59809 -0.72949 -0.07884 -6.27088 -17.59946 -36.86211 -34.64441 -93.36462 -156.72961 -112.78232 -121.19283 -149.44756 -119.40364 -36.43001 80.23577 372.62078 633.66454 517.60279 453.52266 118.42249 50.59584 0.62203 -67.30198 -105.59819 -157.14965 -260.06129 -1953.03341 -2783.08561 -3035.70904 -2991.67707 -2953.42034 -2927.88394 -2922.93974 -2968.86109 -2995.93715 -3088.17006 -3142.66139 -3213.86374 -3247.62389 -3301.38422 -3331.41956 -3357.32813 -3381.93348 -3407.67070 -3413.11146 -3428.85546 -3447.70726 -3447.70433 -3458.50782 -3459.49006 -3452.73246 -3433.58192 -3427.50726 -3405.03336 -3403.04916 -3373.91647 -3368.09647 -3361.55933 -3349.24458 -3352.24674
-5283.53188 -5277.66425 -5295.25006 -5295.74995 -5318.03716 -5308.66260 -5330.43183 -5338.54135 -5326.69091 -5347.72760 -5339.85583 -5361.53573 -5356.82307 -5350.15874 -5354.32487 -5352.49215 -5354.49484 -5351.29057 -5351.45353 -5365.03004 -5360.09627 -5357.62681 -5364.18087 -5360.11377 -5351.16800 -5350.17448 -5355.50613 -5338.05337 -5341.10185 -5321.91797 -5313.14478 -5296.64209 -5282.49753 -5285.68892 -5237.56367 -5248.59671 -5200.82579 -5195.85636 -5177.75549 -5112.02129 -5089.83403 -5076.44744 -5032.91978 -5003.47555 -4723.29534 -4257.16866 -3919.46924 -2974.18072 -2554.26430 -2006.25355 -1663.44474 -1251.50728 -1275.19901 -1237.90549 -1092.25708 -1084.75971 -975.89573 -966.87641 -941.57966 -1001.84756 -893.44264 -770.89677 -679.18794 -568.85202 -461.03324 -333.20484 -267.02675 -237.76779 -206.50770 -172.85277 -139.19982 -113.90311 -89.25291 -86.76305 -69.48801 -53.53926 -45.39822 -33.78274 -23.65954 4.28961 13.14784 1.21260 6.66829 13.18944 6.30810 4.85313 2.87262 -4.34583 -13.09591 -20.90338 -37.27958 -49.00312 -77.83795 -70.89381 -73.26745 -56.97613 113.87568 311.44880 506.62251 736.05275 537.02313 240.41134 37.90087 -53.77895 -90.54746 -171.60753 -213.77606 -549.27062 -1090.45396 -2459.01712 -2941.23777 -2930.67400 -2926.46321 -2915.77727 -2896.93546 -2929.29664 -2986.33449 -3035.37581 -3108.74139 -3171.64565 -3221.30561 -3283.18642 -3320.30696 -3361.18834 -3391.95982 -3410.94482 -3431.00751 -3448.00732 -3466.21721 -3476.97856 -3490.27329 -3498.24905 -3491.16115 -3479.72023 -3466.10698 -3451.40075 -3434.18658 -3412.51692 -3389.77988 -3369.98070 -3364.66505 -3352.27725 -3351.82580
-5309.04690 -5309.05661 -5309.91477 -5327.22559 -5337.78289 -5347.77607 -5363.05525 -5382.41796 -5394.20973 -5394.86844 -5420.51455 -5401.23830 -5409.62967 -5404.33180 -5392.10295 -5402.01814 -5391.64665 -5412.97499 -5416.37410 -5416.71794 -5394.89473 -5402.77832 -5400.23205 -5398.40832 -5408.44215 -5403.07757 -5391.61736 -5384.14201 -5376.20731 -5378.67162 -5365.85760 -5345.15743 -5341.24026 -5317.10892 -5308.41995 -5271.65699 -5263.25024 -5226.50797 -5218.05658 -5174.41664 -5162.68731 -5111.84411 -5075.42286 -5060.53086 -5047.88567 -4749.97920 -4535.29408 -4262.98032 -3764.68923 -3014.59853 -2458.71402 -2009.04575 -1772.63010 -1720.30549 -1344.18903 -1239.54206 -1259.32587 -1192.46373 -1668.62123 -1646.15540 -1311.77183 -920.35890 -699.77332 -600.69922 -459.26191 -381.27577 -342.47727 -285.76741 -245.33823 -219.15982 -158.65543 -136.69194 -119.43679 -95.53720 -60.08787 -52.30008 -43.92756 -26.58184 -17.14295 -7.71388 0.91936 -1.46262 16.99795 17.96085 29.12033 30.18211 24.26694 25.40349 7.96251 11.18982 -0.79875 -24.19576 -29.25983 -13.09857 0.67772 75.30883 214.72703 442.18735 549.63817 501.83798 197.94275 52.09410 -11.47851 -67.53746 -112.55586 -218.38139 -262.20172 -700.48756 -2204.50768 -2832.27707 -3013.53675 -2915.68263 -2909.12911 -2898.41207 -2915.88180 -2952.40691 -3020.52719 -3058.56766 -3143.69310 -3195.89310 -3263.82310 -3328.47675 -3371.11610 -3404.80620 -3437.92580 -3436.81195 -3475.07851 -3483.34891 -3503.21635 -3513.58483 -3518.86036 -3518.29967 -3514.41921 -3498.28726 -3481.63505 -3470.10055 -3450.19645 -3410.46978 -3400.72591 -3378.78083 -3369.46782 -3346.14627 -3360.91869
-5337.00187 -5333.92886 -5358.90829 -5373.79547 -5379.66675 -5385.60715 -5408.33608 -5424.63783 -5438.01995 -5452.49412 -5456.90194 -5458.42431 -5465.63172 -5452.12166 -5457.07057 -5446.79034 -5456.47158 -5474.04923 -5470.43485 -5470.02067 -5458.73828 -5481.50798 -5467.13276 -5462.56084 -5474.75906 -5456.18318 -5457.51049 -5451.01548 -5462.29973 -5427.75517 -5431.51124 -5403.88353 -5398.63605 -5398.24088 -5360.75771 -5331.35413 -5316.80002 -5285.83109 -5238.95369 -5239.99011 -5201.40908 -5183.83208 -5127.55294 -5119.10644 -5060.77159 -5029.54927 -4968.47009 -4826.25447 -4523.62210 -4081.99924 -3745.02337 -3690.62667 -3438.00854 -3160.44490 -2381.69578 -3035.08224 -2834.26791 -3060.25797 -2508.41827 -2031.17876 -1546.67461 -1016.65275 -744.07782 -565.01333 -440.79951 -384.53168 -369.02072 -298.14246 -264.73730 -223.32200 -207.44137 -155.32447 -128.08236 -79.15083 -54.41642 -48.85228 -32.48794 -20.94618 -16.93358 -6.04350 -9.81271 1.83452 23.30239 32.38376 50.59403 57.85468 59.60329 62.50053 43.93195 48.36221 43.97665 57.46455 4.27689 30.16689 147.63655 278.30640 355.86599 621.29504 577.09501 315.58469 96.27378 13.39937 -89.97522 -136.50720 -180.44354 -810.93374 -1148.62170 -2123.45016 -2637.27376 -3073.04281 -2970.76898 -2916.41775 -2913.58216 -2923.88247 -2938.28297 -2981.51098 -3042.52108 -3107.15607 -3158.21603 -3222.84236 -3280.03619 -3353.33542 -3380.09477 -3434.34154 -3459.38007 -3475.01947 -3512.10937 -3525.05668 -3530.81138 -3536.43194 -3545.82935 -3543.93164 -3529.30127 -3520.86932 -3503.83289 -3475.03244 -3462.99699 -3419.98823 -3397.91768 -3384.52818 -3348.99632 -3347.36045 -3354.48389
-5369.00688 -5376.13859 -5391.64289 -5402.21802 -5430.13225 -5450.48644 -5462.52425 -5473.40567 -5479.13567 -5504.94092 -5531.80067 -5531.24020 -5537.77999 -5556.18463 -5579.05414 -5555.99947 -5552.84905 -5541.72178 -5539.55541 -5529.11650 -5532.25075 -5542.58465 -5552.78036 -5546.32205 -5547.24295 -5543.56503 -5521.39057 -5536.38741 -5528.66157 -5516.28578 -5495.65950 -5503.43732 -5477.75174 -5447.17608 -5420.88183 -5406.97483 -5380.73138 -5346.06140 -5354.49033 -5298.79453 -5252.90900 -5257.54944 -5208.76398 -5169.41856 -5129.24463 -5079.76513 -5025.19946 -4962.73021 -4893.53506 -4706.33733 -4635.16860 -4482.98186 -4308.52160 -4249.13228 -3568.03075 -3930.96097 -3812.05860 -3545.69744 -3043.80230 -2356.37448 -1587.20536 -1205.02538 -841.25535 -560.63993 -466.69017 -406.26170 -381.79003 -345.45810 -259.99127 -234.59869 -215.02391 -197.67111 -108.40140 -78.42279 -63.85034 -43.78405 -38.98174 -22.41181 -14.62547 -5.40013 8.10297 25.54132 48.80979 66.82635 77.51029 82.26522 86.32242 89.46030 100.19300 111.14576 108.92012 184.83305 185.47282 352.91322 410.53959 594.20497 833.09490 807.29661 416.94308 212.03015 2.24283 -90.94094 -164.54344 -263.99408 -754.55572 -1287.90252 -2876.02209 -2612.63538 -3003.16654 -3037.93369 -2954.93473 -2919.94908 -2918.23767 -2927.27443 -2980.57892 -3001.40142 -3084.50390 -3134.78743 -3201.79862 -3271.68013 -3326.96137 -3382.33520 -3423.90766 -3472.09720 -3489.73413 -3506.71996 -3531.34628 -3554.01254 -3553.52121 -3555.23367 -3554.26565 -3550.73538 -3532.78029 -3519.48964 -3493.67415 -3473.82806 -3463.05347 -3410.46492 -3392.67504 -3377.90914 -3358.39290 -3343.56416 -3341.46106
-5417.84309 -5423.56321 -5456.78929 -5465.17990 -5506.49645 -5525.58500 -5540.43634 -5570.93420 -5568.00102 -5595.05554 -5611.33024 -5601.63264 -5584.96493 -5610.75776 -5611.74402 -5616.77237 -5630.77821 -5596.62280 -5621.63575 -5651.25044 -5612.18865 -5602.76573 -5623.52604 -5611.76296 -5628.69361 -5620.45467 -5594.95414 -5601.13118 -5579.63497 -5610.94760 -5578.27778 -5575.32542 -5557.77373 -5522.99467 -5522.95923 -5494.63736 -5500.00477 -5453.40295 -5406.04016 -5374.55000 -5350.46888 -5326.19762 -5315.85967 -5243.09327 -5187.25748 -5140.00744 -5024.88988 -4985.31008 -4895.51443 -4846.44002 -4779.23226 -4724.04279 -4705.94901 -4640.41989 -4561.90915 -4364.77949 -4157.79115 -3702.05386 -3100.81972 -2267.45077 -1734.80670 -1246.63089 -968.92934 -705.99932 -522.80512 -428.72463 -373.48474 -322.90504 -280.61623 -243.98824 -227.40481 -173.91439 -112.15510 -85.61449 -63.57771 -41.57021 -29.80894 -17.32839 4.67537 2.38363 24.50431 39.13596 66.47436 82.62665 100.16198 99.76620 101.13406 107.28915 100.50973 330.63597 373.71473 389.25711 360.87106 909.93795 1056.52840 1391.56045 1383.81236 971.64537 695.60801 386.46899 61.52632 -144.64962 -286.86544 -851.96334 -2146.15219 -2932.31809 -3510.15520 -2972.22412 -3071.36550 -2972.29099 -2940.54066 -2933.08960 -2953.59322 -2964.71398 -3005.53209 -3023.80877 -3104.87682 -3184.52535 -3262.32236 -3305.05223 -3335.81292 -3457.78893 -3470.32790 -3502.14606 -3529.76748 -3555.25527 -3563.25521 -3568.21553 -3560.40777 -3568.89472 -3553.74260 -3545.82812 -3523.36656 -3520.08460 -3495.29578 -3468.08983 -3439.86189 -3408.42113 -3394.47531 -3362.44121 -3339.64082 -3335.44849 -3332.77634
-5475.15280 -5482.27426 -5506.99291 -5533.41690 -5567.38260 -5575.86014 -5609.44181 -5622.97327 -5644.61409 -5674.03193 -5696.36506 -5710.13874 -5696.52575 -5715.65409 -5707.73159 -5706.89604 -5719.92833 -5699.37629 -5709.81578 -5706.17796 -5696.74636 -5697.70118 -5687.38790 -5681.27916 -5666.36150 -5691.11865 -5701.81241 -5681.41044 -5680.89855 -5663.82339 -5670.48256 -5638.98608 -5619.88869 -5606.45973 -5601.06710 -5560.96512 -5533.29953 -5527.86298 -5494.69321 -5497.34300 -5451.58357 -5397.67007 -5364.27785 -5301.09142 -5298.96290 -5181.68858 -5130.53247 -5045.41335 -4962.65224 -4886.65460 -4822.63348 -4769.15074 -4738.14546 -4673.80974 -4601.78722 -4490.16261 -4391.94210 -3892.46525 -3382.96195 -2587.75658 -1724.98775 -1450.37614 -1187.69888 -859.28377 -583.11032 -492.47797 -373.49139 -318.97849 -290.09603 -247.41974 -227.96259 -153.97559 -91.83044 -79.75036 -59.82584 -26.21402 2.05669 -4.42922 -5.32566 17.87939 24.84870 53.09746 70.82137 84.10466 103.72017 120.12330 173.03234 271.48835 334.21424 574.46481 857.19677 727.83697 778.64810 1257.06793 1452.32475 1776.18549 1665.56823 1106.68675 924.17499 515.39753 39.19884 -169.70056 -869.29301 -1257.63587 -2601.14044 -3586.97843 -3350.60477 -3116.98059 -3006.67505 -2965.91079 -2956.96311 -2957.36359 -2978.71532 -3004.44356 -3037.64657 -3077.07333 -3153.64204 -3227.13443 -3287.18738 -3362.49922 -3428.36485 -3478.36422 -3504.23388 -3531.60271 -3560.17037 -3565.35725 -3580.14889 -3580.75283 -3573.17398 -3568.80823 -3553.03599 -3542.73013 -3525.61641 -3493.66255 -3477.08063 -3443.76230 -3423.96811 -3408.50536 -3377.68982 -3362.66472 -3348.31436 -3335.83210 -3325.57879
-5548.86256 -5548.24227 -5574.16973 -5607.63607 -5646.40573 -5669.53712 -5696.62887 -5733.48526 -5730.39846 -5766.75008 -5767.10444 -5776.71123 -5786.91325 -5780.30760 -5795.46762 -5778.98770 -5777.34978 -5773.81201 -5775.86347 -5779.35617 -5776.96037 -5771.44873 -5780.54703 -5775.05443 -5765.15584 -5762.70787 -5782.99976 -5766.59769 -5748.85463 -5742.35688 -5728.93917 -5702.54214 -5721.01135 -5700.10482 -5677.87979 -5640.79652 -5638.50454 -5612.81252 -5587.16305 -5562.78243 -5530.73677 -5516.30962 -5458.40161 -5421.70892 -5361.00075 -5338.86254 -5233.02439 -5138.79629 -5056.80364 -4988.80799 -4888.70030 -4809.12925 -4764.38065 -4656.35676 -4616.39837 -4583.59741 -4474.00728 -4144.12929 -3598.72323 -2562.03911 -1998.88771 -1736.99430 -1338.36448 -881.41698 -682.13838 -517.76395 -426.37629 -323.36814 -285.11008 -250.59347 -208.16111 -143.42357 -73.94243 -56.55120 -36.90162 -27.09866 -2.23070 5.38803 12.11583 26.85541 32.64101 70.95094 97.41432 91.94437 128.28173 159.45901 280.95478 516.59072 686.27230 1116.49285 1599.32572 1529.65407 1662.76119 1548.40789 1401.67647 1663.61818 1453.39419 789.33148 670.14066 -245.92008 -1178.15568 -1232.75708 -1303.68505 -2493.22475 -2710.18903 -3310.75161 -3263.31969 -3055.33343 -2996.91325 -2965.14651 -2971.81283 -2980.68445 -3004.34735 -3015.52321 -3068.14041 -3133.34614 -3178.94608 -3285.83646 -3356.24256 -3403.08623 -3463.14231 -3520.95407 -3550.43958 -3560.81166 -3578.81978 -3588.68254 -3584.54868 -3591.02163 -3569.05211 -3554.62383 -3539.99637 -3521.20014 -3500.99424 -3471.45086 -3451.96765 -3425.11005 -3414.40673 -3394.69460 -3365.97815 -3345.79033 -3335.19486 -3317.78965 -3316.73959
-5615.29652 -5624.66847 -5634.80943 -5683.96781 -5709.57325 -5730.88297 -5790.00547 -5812.19820 -5811.95813 -5826.68360 -5851.39494 -5857.27168 -5842.87485 -5856.99709 -5842.23443 -5842.14712 -5846.15081 -5837.82899 -5850.85626 -5834.38233 -5828.07200 -5806.73634 -5810.63692 -5814.44234 -5812.29959 -5813.15225 -5805.69554 -5810.19405 -5788.68787 -5789.02815 -5786.56587 -5770.76943 -5748.58986 -5742.52129 -5742.88094 -5703.25925 -5705.67351 -5651.52921 -5662.85158 -5625.20325 -5591.86065 -5552.04702 -5526.04885 -5480.92508 -5446.06557 -5396.17234 -5294.91976 -5193.61429 -5110.85812 -5044.15193 -4968.52166 -4883.92492 -4758.69129 -4668.88329 -4602.34122 -4538.43846 -4370.96648 -4027.51708 -3565.86776 -2493.17373 -2100.54116 -1620.51333 -1328.38917 -966.12966 -800.25896 -614.55118 -514.54522 -320.20543 -290.10526 -227.23438 -171.09931 -86.04508 -64.83677 -57.23918 -25.48866 21.64549 44.57189 61.01821 56.24382 56.14380 33.07481 106.24175 104.97640 183.20900 319.76478 364.13022 478.63193 905.93518 1314.66019 1598.74470 1844.71854 1911.91472 1614.87965 1397.71211 1051.24141 716.91058 757.12614 368.84298 -134.29378 -692.07632 -2298.84535 -3075.12229 -3608.65512 -3607.52353 -3514.10177 -3287.44694 -3126.40204 -3059.90523 -3008.75320 -2994.36897 -2986.44484 -3011.27984 -3021.89653 -3090.79784 -3121.62749 -3197.94715 -3272.12339 -3332.75197 -3382.19444 -3440.65972 -3490.23578 -3538.78711 -3564.24908 -3572.17686 -3591.16127 -3591.44977 -3587.57447 -3576.77774 -3557.48758 -3536.48069 -3530.10896 -3511.63546 -3474.84602 -3451.39039 -3436.49528 -3415.97088 -3401.45930 -3374.26325 -3346.79452 -3337.28609 -3327.76712 -3312.98846 -3313.96861
-5688.18834 -5685.05209 -5710.92468 -5747.69199 -5782.23812 -5812.15130 -5830.32129 -5857.93537 -5866.99863 -5900.19906 -5888.04319 -5902.69362 -5900.94634 -5896.61901 -5887.92107 -5880.63717 -5890.21276 -5889.50014 -5887.83151 -5871.19627 -5867.33799 -5867.56821 -5867.79600 -5855.42037 -5848.60982 -5846.79410 -5847.11183 -5831.71819 -5819.45573 -5811.01896 -5808.73440 -5794.94497 -5790.67028 -5755.63553 -5761.16070 -5753.42265 -5736.47715 -5730.45920 -5701.39651 -5688.11098 -5655.91262 -5633.06868 -5603.06757 -5563.49029 -5519.84841 -5446.33077 -5360.05246 -5268.66063 -5159.25118 -5086.98609 -4991.75698 -4857.37827 -4800.22718 -4694.64629 -4523.05394 -4439.92948 -4313.09317 -4045.53948 -3410.00050 -2674.94916 -2369.98908 -1708.33553 -1415.07487 -1156.65606 -935.03194 -719.77361 -514.61219 -403.85719 -314.62254 -243.07755 -158.96545 -63.09227 -58.13143 -16.87269 21.64274 53.61867 80.42863 82.51776 130.89869 129.72565 106.01279 379.71497 741.78699 538.95597 609.50003 780.52194 1020.55817 1211.97896 1423.30064 1505.60971 1593.47896 1239.48686 1003.02997 853.72708 760.14490 196.16857 237.09178 103.37135 -711.07529 -1470.77092 -3058.31181 -3617.74210 -3548.04179 -3410.64772 -3308.54302 -3192.50057 -3077.11833 -3050.37519 -3028.78588 -3018.60358 -3030.54676 -3050.93883 -3088.09792 -3130.30554 -3170.52859 -3232.84167 -3302.31578 -3383.10799 -3436.10883 -3510.84919 -3542.09347 -3560.26144 -3587.36845 -3593.01151 -3594.13304 -3585.55135 -3574.08653 -3560.73091 -3531.21993 -3518.89029 -3484.51867 -3460.99455 -3442.90565 -3426.91056 -3407.10862 -3392.10001 -3363.28412 -3353.97160 -3335.83019 -3331.56993 -3310.64386 -3302.66221 -3295.95984
-5753.37374 -5754.26015 -5782.99849 -5806.21380 -5842.27412 -5865.47577 -5903.43231 -5896.71956 -5929.34072 -5935.05370 -5926.84711 -5931.54862 -5935.38016 -5926.48795 -5911.37677 -5916.40859 -5910.02601 -5908.02103 -5897.75384 -5899.65119 -5897.07969 -5874.22524 -5872.17096 -5870.55821 -5861.25376 -5859.42745 -5852.46219 -5839.15025 -5833.79653 -5829.73657 -5819.87241 -5808.09189 -5804.58423 -5797.97712 -5787.54874 -5771.44426 -5764.13789 -5741.58914 -5733.56106 -5729.08171 -5683.42807 -5685.21880 -5627.31942 -5588.12800 -5546.97578 -5456.43328 -5405.81897 -5319.21855 -5241.70989 -5027.89268 -4785.95241 -4437.77177 -4250.00071 -4314.81692 -4107.03928 -4362.34188 -4253.84275 -4073.47518 -3627.07972 -3273.35147 -2456.04781 -2217.77419 -1361.92456 -1084.09507 -923.97373 -658.80210 -612.18682 -480.41570 -330.49042 -201.31238 -191.85931 -56.33548 -50.31280 14.09681 164.94879 260.20658 319.59385 281.42638 265.50401 447.37112 405.97061 688.70218 985.21129 1120.99234 1061.05352 816.12887 728.79721 925.98795 1082.26647 862.39515 909.14277 644.10318 634.26565 460.23559 287.69191 -57.43139 -194.98556 -489.44601 -1438.47556 -2254.56223 -3178.45194 -3549.82314 -3406.56764 -3267.67488 -3169.65463 -3139.71076 -3079.14798 -3068.21671 -3067.10054 -3061.14599 -3047.45259 -3095.90920 -3125.07231 -3173.82478 -3237.14080 -3295.71778 -3358.35141 -3405.32021 -3478.30182 -3510.38232 -3550.95339 -3574.21023 -3593.16780 -3595.09132 -3587.68079 -3563.18402 -3565.88004 -3537.82160 -3518.45683 -3500.56803 -3467.71918 -3450.28376 -3408.47997 -3401.81089 -3388.72529 -3368.23884 -3355.13531 -3335.55535 -3329.16733 -3315.17768 -3304.12295 -3301.28986 -3297.67951
-5805.88318 -5805.25120 -5836.70663 -5843.80312 -5878.27944 -5902.20236 -5919.02205 -5926.96869 -5943.56107 -5949.25487 -5942.94754 -5949.60662 -5956.06574 -5940.83682 -5934.67364 -5929.97767 -5922.47777 -5911.54606 -5915.02482 -5901.81249 -5892.49319 -5879.97066 -5869.92202 -5863.86498 -5860.39980 -5853.32135 -5838.64083 -5843.82240 -5821.98748 -5817.88349 -5817.80952 -5821.17126 -5803.65603 -5796.70700 -5785.21752 -5771.71968 -5777.56327 -5759.93020 -5753.58325 -5742.94643 -5724.67187 -5687.72378 -5669.83507 -5627.35118 -5570.19595 -5515.52609 -5459.21475 -5367.68242 -5296.56036 -4750.40439 -4117.25254 -3449.09493 -2780.59001 -2836.13963 -2811.65512 -3664.88497 -4085.70912 -3865.62223 -3685.35222 -3230.78621 -2837.49492 -2447.90458 -1572.54309 -1207.42805 -924.91775 -835.09940 -676.93805 -460.15679 -275.10647 -147.80336 -86.12497 114.04764 361.12647 446.14845 599.84415 683.29807 744.98108 882.16061 812.32581 931.93668 1127.72559 931.59453 919.68056 975.96955 762.80280 492.00132 334.30066 474.91198 486.36498 528.35997 599.52499 399.91278 260.47865 234.68940 -11.50528 -1082.43274 -1714.29564 -1170.64396 -1883.03948 -3067.59407 -3510.85821 -3416.91441 -3322.62337 -3196.95845 -3185.68873 -3159.26791 -3108.19988 -3077.16207 -3085.50765 -3111.05434 -3110.46978 -3156.96906 -3192.79052 -3215.14443 -3276.22690 -3345.52159 -3393.63386 -3441.22979 -3499.08742 -3535.02030 -3572.41375 -3583.28450 -3587.99827 -3588.48123 -3580.69185 -3558.24265 -3533.05128 -3514.15321 -3481.94125 -3460.49318 -3444.51081 -3417.39919 -3396.17163 -3376.83482 -3371.15625 -3355.57279 -3343.85419 -3327.85835 -3317.23360 -3308.23026 -3289.93395 -3300.40889 -3296.05139
-5851.63982 -5848.02721 -5875.72365 -5895.92026 -5908.91744 -5930.25863 -5947.89626 -5948.59765 -5960.49683 -5954.64480 -5956.49352 -5951.35981 -5948.03920 -5946.94647 -5927.27085 -5919.72030 -5916.62807 -5912.51728 -5889.98870 -5891.72921 -5875.00267 -5869.72873 -5858.34323 -5844.79352 -5839.07615 -5819.50634 -5825.09691 -5815.26036 -5809.70616 -5798.37710 -5781.87321 -5773.84123 -5793.64579 -5786.44180 -5775.13819 -5767.03058 -5772.88599 -5773.74778 -5769.40841 -5741.50850 -5730.85868 -5708.93858 -5672.07782 -5637.36138 -5601.60609 -5581.06959 -5512.81989 -5404.15014 -5186.21977 -4381.08083 -3332.97308 -2645.32128 -2109.27957 -1997.59981 -2120.21407 -3050.27033 -3383.98433 -3760.04615 -3733.79512 -3551.87051 -3134.92826 -2510.47559 -1683.40423 -1410.49224 -1074.62011 -869.69200 -728.94228 -439.49229 -261.89358 -101.11896 5.04322 155.12375 513.42092 955.14030 1206.94949 1262.39394 1341.67820 1543.05138 1412.29290 1264.86622 1271.80742 1042.04704 676.25540 657.79680 275.13935 265.18388 154.10999 260.13163 215.20557 409.43623 451.65270 313.90054 29.97239 13.85202 -1540.27592 -3193.89805 -3074.94701 -2652.42040 -2967.17362 -3336.72366 -3542.77624 -3449.27507 -3289.77960 -3249.70730 -3203.57248 -3152.56943 -3120.56302 -3100.53444 -3106.09988 -3136.03960 -3177.28669 -3197.92592 -3243.86464 -3273.35991 -3334.90380 -3365.33479 -3434.54624 -3468.87048 -3526.19884 -3551.49244 -3578.37144 -3590.55335 -3583.55220 -3567.00412 -3563.73719 -3542.08074 -3517.64497 -3484.48878 -3464.71415 -3434.04865 -3411.13352 -3393.38202 -3374.03598 -3362.96904 -3349.82652 -3332.33938 -3319.54483 -3310.25593 -3303.34491 -3290.24658 -3291.27833 -3291.36822 -3290.74095
-5885.74771 -5883.41316 -5903.20302 -5920.25884 -5930.14499 -5943.05947 -5961.65898 -5957.12812 -5946.93352 -5941.66632 -5936.06999 -5950.00634 -5934.95151 -5934.87518 -5917.05720 -5906.42446 -5891.93382 -5878.74343 -5883.08402 -5855.29377 -5864.68399 -5840.14582 -5839.12715 -5836.22371 -5823.35689 -5802.83419 -5797.79864 -5783.44868 -5788.95553 -5770.78608 -5760.26016 -5773.88365 -5769.70060 -5765.02489 -5758.83231 -5755.57385 -5758.95067 -5762.57671 -5747.85978 -5746.26746 -5722.86948 -5705.40129 -5681.69577 -5652.45136 -5624.15745 -5564.37582 -5512.43434 -5331.22313 -4701.89687 -3841.72048 -2728.56502 -2150.47820 -1671.57730 -1588.99240 -1756.93518 -2180.00038 -3181.43525 -3171.25367 -3269.43180 -2919.70228 -2553.35108 -2271.19140 -1783.56506 -1266.36542 -986.65904 -848.62908 -609.48117 -429.05420 -233.09126 -48.29060 73.65794 325.47421 684.74206 899.11949 1129.88138 1188.56727 1144.36445 1294.32544 977.90376 954.72343 685.34521 535.56061 301.00528 135.31755 103.53100 178.26164 74.46349 90.20091 67.46723 161.59492 -606.60324 -297.34170 -694.88059 -966.87962 -1607.88061 -2853.25539 -3530.05660 -3355.87875 -3605.22661 -3599.02423 -3540.66574 -3422.69946 -3331.45960 -3260.69954 -3219.81366 -3170.89034 -3134.58858 -3126.91512 -3139.78993 -3190.78884 -3239.73764 -3270.64584 -3284.98294 -3299.58743 -3349.27629 -3407.08711 -3456.63935 -3515.00473 -3540.60572 -3575.74747 -3583.88408 -3579.08943 -3572.19554 -3560.19081 -3538.65177 -3516.52976 -3486.31963 -3454.07680 -3437.17620 -3409.26667 -3394.87501 -3371.70413 -3355.93636 -3349.95976 -3332.41568 -3339.21575 -3314.39354 -3298.67077 -3303.95918 -3291.50669 -3295.11767 -3294.08757 -3292.00137
-5903.48172 -5902.68084 -5909.94063 -5916.56836 -5936.58319 -5937.83220 -5948.11407 -5929.78726 -5925.03958 -5916.21543 -5922.66749 -5907.82385 -5904.40094 -5903.52621 -5885.69867 -5883.18499 -5878.71703 -5855.04926 -5849.82978 -5837.09535 -5830.09146 -5817.89026 -5794.20032 -5791.19395 -5782.93732 -5771.51680 -5763.58731 -5748.87508 -5740.88410 -5734.04087 -5738.64967 -5719.46623 -5730.51554 -5740.37322 -5745.83412 -5739.62010 -5736.97774 -5740.93480 -5739.54224 -5738.31776 -5716.26688 -5693.42291 -5685.43044 -5646.35141 -5576.16442 -5480.95790 -5322.32915 -4969.44958 -4249.25565 -3187.55159 -2503.67316 -1748.70611 -1609.35747 -1527.14191 -1563.72825 -1780.33096 -1967.89323 -2152.45091 -2143.57043 -1974.30131 -1604.52019 -1420.33771 -1147.64498 -986.30057 -872.70652 -678.23294 -554.38675 -328.67697 -198.39552 -44.20979 8.38730 74.02011 303.31518 478.61581 331.60514 638.54509 448.37586 453.93454 579.54092 464.76353 113.79813 255.94207 100.48800 51.11648 18.71594 64.12616 49.37948 -79.50868 -0.48798 -1034.28332 -1674.68405 -1728.99391 -2691.46904 -2591.31815 -2072.52293 -3455.21033 -3659.64810 -3683.34427 -3657.94673 -3613.75456 -3518.68338 -3426.90716 -3334.74412 -3256.64401 -3229.42787 -3191.67672 -3161.10924 -3150.30627 -3181.66115 -3208.56465 -3274.73650 -3327.18137 -3328.83222 -3357.74318 -3402.37315 -3426.27955 -3490.75290 -3529.02860 -3554.93305 -3570.57698 -3589.50971 -3570.28699 -3563.35083 -3544.42324 -3515.20842 -3484.97583 -3476.59981 -3434.67981 -3413.29489 -3393.78026 -3374.32474 -3355.08207 -3340.89464 -3326.48188 -3316.85053 -3312.71619 -3297.74132 -3295.68965 -3290.67734 -3293.03474 -3294.28282 -3289.66941 -3288.87297
-5908.80431 -5906.58671 -5930.10576 -5924.79382 -5925.60994 -5928.81178 -5931.89942 -5931.60665 -5918.72980 -5911.80691 -5905.99284 -5893.01499 -5881.71822 -5874.38108 -5863.40871 -5850.66938 -5836.60347 -5838.37860 -5814.09145 -5813.04856 -5795.03026 -5791.44169 -5779.33083 -5767.61502 -5749.03806 -5737.86184 -5728.56634 -5721.81525 -5702.57532 -5700.44002 -5708.05125 -5703.28489 -5711.85959 -5716.10666 -5713.18374 -5718.73390 -5722.64561 -5717.07922 -5728.68942 -5718.80406 -5723.19489 -5694.56694 -5682.74070 -5627.63528 -5410.73587 -5080.57219 -4829.22081 -3950.15161 -3467.43935 -2489.76915 -1980.08133 -1679.08823 -1541.27729 -1468.65144 -1431.85374 -1485.13035 -1553.82201 -1489.70122 -1405.52400 -1200.30345 -1017.37836 -942.74909 -910.66132 -756.80568 -590.66780 -414.61684 -315.44723 -251.37806 -148.59106 -86.79622 -54.42792 9.26067 37.41661 26.58177 76.73207 150.89546 177.23244 121.06456 198.25633 73.85509 27.06866 38.94301 -37.05859 -97.61048 -19.57251 -108.74752 -145.56804 -215.02547 -912.21678 -2375.90079 -3535.58899 -3637.50610 -3236.72596 -3366.04878 -3013.28440 -3644.54620 -3696.25088 -3676.34825 -3637.10676 -3548.01856 -3497.73559 -3428.56603 -3328.85367 -3277.57415 -3235.73062 -3200.37201 -3174.53073 -3185.37468 -3215.79575 -3280.44704 -3345.54793 -3364.30016 -3367.54502 -3384.91848 -3418.58437 -3472.14447 -3496.84402 -3533.34521 -3564.25472 -3579.43681 -3570.70329 -3565.25944 -3537.68357 -3527.61129 -3501.76216 -3470.85410 -3434.36496 -3413.41269 -3387.18932 -3377.97848 -3352.78320 -3342.00792 -3337.55321 -3319.01013 -3314.99447 -3307.81366 -3303.76235 -3297.62095 -3294.66680 -3292.01782 -3282.35642 -3291.83083 -3287.08479
-5907.87272 -5910.74439 -5909.48617 -5919.02902 -5907.64304 -5909.06043 -5904.52878 -5912.83568 -5892.33917 -5897.96227 -5872.69550 -5871.06231 -5858.02830 -5852.32359 -5842.60231 -5835.29067 -5822.00794 -5809.39071 -5795.46646 -5791.21321 -5783.88140 -5763.17313 -5747.74258 -5741.23088 -5724.91672 -5714.92353 -5699.38916 -5691.30411 -5687.77786 -5668.81852 -5682.01151 -5660.87705 -5685.79106 -5686.36413 -5694.36263 -5718.04586 -5712.75924 -5719.52435 -5714.07612 -5713.98007 -5707.79299 -5686.26324 -5637.51598 -5527.24117 -4650.72772 -4272.11199 -3633.17684 -2978.10621 -2378.32741 -2004.41120 -1693.93099 -1601.69513 -1485.21476 -1404.77385 -1400.76459 -1402.66856 -1376.77256 -1334.18498 -1209.21156 -1095.13048 -988.87588 -910.08641 -802.02420 -546.06283 -389.33814 -261.07385 -126.14425 -81.24418 -106.58666 -90.22118 -103.11442 -75.15252 -57.32862 -55.70785 -21.87985 35.27184 62.62273 11.36427 -18.47153 -33.17726 -35.83920 -84.24280 -262.91137 -359.53387 -364.57526 -336.99308 -360.34752 -1094.75473 -1927.82560 -2805.84250 -3835.64787 -3908.69495 -3758.19631 -3686.04979 -3661.87883 -3648.79285 -3685.40386 -3657.82586 -3618.58321 -3519.72854 -3482.09550 -3415.01784 -3346.77308 -3281.74389 -3253.94472 -3224.36302 -3211.05730 -3217.53339 -3258.73179 -3333.16163 -3404.28000 -3429.22804 -3412.00452 -3408.35856 -3444.86481 -3478.23908 -3516.40523 -3545.26150 -3556.71393 -3561.22013 -3560.13330 -3525.52991 -3531.24188 -3524.01272 -3468.26316 -3436.37440 -3426.75800 -3399.36889 -3374.44298 -3354.39424 -3339.73994 -3328.62175 -3319.03419 -3302.06756 -3299.52606 -3291.75422 -3296.22168 -3296.04644 -3294.47604 -3297.07682 -3292.65373 -3298.87410 -3297.70759
-5893.53641 -5906.12025 -5902.15618 -5897.67328 -5891.16908 -5902.52561 -5899.59080 -5883.39001 -5875.63874 -5868.12786 -5859.26389 -5845.14991 -5838.26103 -5819.98969 -5803.08674 -5801.43285 -5787.97808 -5791.26715 -5766.35328 -5764.40601 -5754.70598 -5740.56858 -5739.17572 -5707.29306 -5700.82219 -5695.14005 -5672.31960 -5658.49113 -5654.61461 -5651.35762 -5643.45482 -5645.37553 -5643.44189 -5662.07696 -5676.10503 -5689.01393 -5710.03961 -5709.80630 -5712.96712 -5706.05040 -5705.27432 -5683.51289 -5506.33157 -5183.73108 -3880.17376 -3472.20147 -3091.76089 -2340.54648 -1945.76953 -1781.88776 -1586.75037 -1484.14156 -1390.29490 -1429.79946 -1400.28779 -1563.04500 -1487.78327 -1289.12619 -1127.76690 -1083.84787 -1014.15270 -959.50261 -906.54008 -495.27924 -230.77506 -71.33252 290.06101 408.92953 154.50125 -12.98782 -100.58016 -129.54606 -119.05398 -90.19471 -78.98314 -2.43453 38.08357 -92.91664 -158.72133 -124.98831 -289.44752 -691.99292 -1284.82746 -2508.09586 -2126.83182 -1953.93408 -2073.78681 -2806.94291 -3571.07268 -3672.95964 -3997.40520 -3918.95195 -3850.71041 -3814.61718 -3770.64224 -3735.21313 -3670.76868 -3657.40039 -3571.20030 -3510.57291 -3457.90934 -3420.11002 -3343.60647 -3293.40132 -3268.92918 -3224.96196 -3234.89588 -3259.88484 -3305.56986 -3387.13681 -3454.22228 -3451.03644 -3437.93922 -3439.63399 -3465.79894 -3497.28000 -3518.44431 -3541.01133 -3545.53953 -3552.13341 -3532.31485 -3523.64089 -3502.37231 -3478.52554 -3454.52662 -3432.60456 -3400.57198 -3375.56546 -3354.46041 -3339.00334 -3330.18631 -3313.71456 -3308.61328 -3310.38710 -3302.78428 -3297.07364 -3297.41631 -3285.27289 -3297.28811 -3299.04908 -3306.17646 -3303.51433 -3310.21214
-5895.69325 -5883.53266 -5888.91962 -5893.69713 -5880.96041 -5878.41717 -5867.84119 -5864.25679 -5863.68719 -5846.01738 -5832.64752 -5825.05902 -5813.29249 -5809.70340 -5797.85922 -5775.25291 -5784.62942 -5757.71971 -5753.22907 -5745.92779 -5734.74081 -5723.59148 -5695.32269 -5681.49084 -5668.10998 -5653.10764 -5635.35177 -5637.53526 -5628.62236 -5624.71190 -5618.83067 -5625.58497 -5636.55649 -5647.20975 -5654.55720 -5680.44178 -5686.49365 -5701.56186 -5717.59450 -5722.61119 -5715.51074 -5700.85032 -5222.22214 -4595.77186 -3668.17755 -2615.23196 -2103.31480 -1873.00983 -1718.24829 -1624.55040 -1471.79814 -1405.99970 -1475.78312 -1615.57078 -1989.54130 -2023.62711 -1745.20173 -1352.29803 -1143.46472 -1125.61556 -1099.10794 -1052.30120 -971.45629 -279.96875 -87.96383 256.87265 674.14642 737.86308 447.64477 29.32184 -238.48735 -470.37128 -503.47894 -316.36652 -248.18120 -154.49355 -208.66241 -302.32766 -552.69041 -844.98506 -907.44219 -1951.83190 -3557.62915 -3397.64220 -3354.57485 -3529.45523 -3488.52167 -3576.72091 -4005.43511 -3999.91681 -3994.06870 -3909.53219 -3867.71733 -3797.83522 -3789.63163 -3744.82865 -3679.71359 -3617.22725 -3558.58734 -3509.72940 -3446.81900 -3404.99811 -3351.54187 -3297.89874 -3268.48082 -3245.04768 -3287.92400 -3299.58079 -3372.22399 -3436.72274 -3505.08287 -3487.79320 -3467.18805 -3461.88136 -3474.40225 -3489.31690 -3520.00637 -3530.47084 -3543.95110 -3525.81199 -3525.19577 -3497.97085 -3485.95111 -3469.68254 -3434.14432 -3407.77721 -3384.88392 -3367.03871 -3348.90561 -3338.03639 -3328.44759 -3312.81816 -3308.27086 -3292.20666 -3295.86458 -3291.19250 -3290.57043 -3297.09776 -3297.71347 -3303.44834 -3302.58167 -3308.27905 -3304.89167
-5878.57745 -5880.24028 -5880.35111 -5865.95817 -5860.85018 -5866.74589 -5856.79301 -5846.91885 -5836.07169 -5836.52151 -5819.79332 -5818.05791 -5797.76438 -5798.21743 -5781.41039 -5769.47005 -5756.75617 -5740.04116 -5729.49775 -5720.33553 -5706.71990 -5712.66711 -5685.94036 -5669.55883 -5659.18110 -5645.34355 -5632.38503 -5621.77826 -5597.46378 -5593.80269 -5598.48977 -5600.17053 -5609.18891 -5619.76171 -5643.71102 -5670.15582 -5690.14658 -5700.98672 -5722.54056 -5720.37931 -5719.78291 -5619.25150 -4987.94497 -4246.64498 -3040.17781 -2186.96492 -1965.57828 -1771.28329 -1755.17805 -1657.00799 -1517.38340 -1383.43433 -1727.04411 -2200.33826 -2868.38606 -2930.52302 -2626.82827 -1647.85527 -1379.51914 -1429.75967 -1720.45465 -1410.11423 -1444.54461 -739.31391 34.23468 569.40680 730.43269 594.12831 326.57735 -489.38752 -939.87301 -1243.91684 -1554.50206 -1203.58255 -1386.41866 -1134.89448 -1437.04579 -2031.34732 -2534.41363 -2615.94804 -2955.35726 -3817.41867 -4091.74200 -4069.29198 -4017.84545 -4005.33032 -4002.55714 -3998.28523 -3999.36391 -3984.07907 -3950.01183 -3879.79775 -3838.65578 -3800.07605 -3767.55188 -3728.31836 -3662.14768 -3605.64619 -3555.83820 -3499.78172 -3442.83102 -3398.97538 -3349.88504 -3309.52540 -3298.75008 -3302.16902 -3314.53615 -3358.90541 -3403.93086 -3496.36270 -3549.71964 -3530.01792 -3517.71915 -3494.80320 -3501.03168 -3486.36335 -3497.82311 -3513.83764 -3522.02540 -3518.55483 -3504.11254 -3474.44922 -3465.79124 -3445.50096 -3416.46694 -3401.32660 -3370.96508 -3350.04551 -3330.48044 -3323.73947 -3322.94106 -3312.03908 -3299.74528 -3307.91662 -3296.83114 -3292.77486 -3296.70815 -3297.47630 -3298.11336 -3307.10128 -3309.73111 -3314.02988 -3312.12628
-5858.13310 -5847.81849 -5843.25153 -5847.26797 -5845.81715 -5851.53948 -5839.22976 -5825.91610 -5823.82691 -5818.32799 -5813.03540 -5807.21671 -5790.95718 -5775.34790 -5766.56810 -5758.27584 -5747.75174 -5734.91101 -5733.34681 -5717.99978 -5705.92893 -5694.96773 -5684.94868 -5668.52745 -5655.87221 -5638.88005 -5615.46965 -5607.48886 -5584.25153 -5581.05597 -5578.76657 -5569.49926 -5591.03004 -5598.88110 -5627.18469 -5664.95635 -5674.02334 -5681.45474 -5693.97558 -5712.28734 -5695.91723 -5510.11089 -4863.48458 -3770.47653 -2485.33540 -2018.33119 -1811.24454 -2065.18551 -2186.67876 -1923.60038 -1637.17203 -1752.05947 -2349.77176 -3172.63554 -3859.45495 -3821.63185 -3178.89315 -2271.90825 -2092.14659 -2359.37214 -2608.83059 -3378.29699 -2757.13895 -2740.84385 -1764.20517 360.95601 388.58964 -60.49564 -1537.65401 -1970.65410 -2150.53256 -2187.70064 -2253.73314 -2217.12378 -2344.63697 -2740.58803 -3830.54950 -3844.61142 -3638.64984 -4253.39642 -4246.92469 -4075.18541 -4117.54628 -3983.59568 -4003.75251 -4013.98816 -3999.80063 -3989.61093 -3987.25599 -3964.43153 -3928.11352 -3868.28723 -3827.69159 -3813.88919 -3749.77339 -3701.55696 -3658.34208 -3601.94126 -3546.29968 -3500.50176 -3450.24458 -3384.84018 -3350.35810 -3329.01957 -3308.30794 -3311.99923 -3344.37058 -3397.84584 -3457.77719 -3567.27956 -3609.17106 -3568.55617 -3526.99289 -3524.01231 -3514.00473 -3488.88872 -3498.60864 -3497.71366 -3496.91523 -3495.10895 -3484.70213 -3481.20043 -3470.77659 -3433.38038 -3407.46258 -3394.42191 -3364.35911 -3347.89778 -3328.44735 -3327.42482 -3311.34718 -3321.51793 -3310.46499 -3310.10605 -3295.28340 -3305.20484 -3297.73679 -3302.29544 -3309.98958 -3313.59498 -3307.67824 -3316.34653 -3323.33252
-5840.38685 -5842.04583 -5846.34513 -5839.10179 -5833.58646 -5820.95758 -5830.94755 -5824.27818 -5815.62448 -5818.11046 -5803.38811 -5798.87461 -5783.63407 -5777.70739 -5760.84007 -5752.89305 -5745.11713 -5724.03814 -5719.18268 -5704.31464 -5694.61622 -5689.78499 -5675.44503 -5666.36623 -5642.29778 -5628.70765 -5616.16703 -5588.54813 -5581.40662 -5574.42303 -5550.72448 -5554.11375 -5570.15363 -5580.41370 -5615.90705 -5611.32022 -5636.43603 -5654.44664 -5661.90751 -5693.20319 -5674.01015 -5206.26233 -4866.88852 -3148.79640 -2344.08692 -2159.28772 -2484.16283 -2814.40479 -3150.34207 -2962.93564 -2225.03566 -1962.56128 -2554.80330 -3351.66874 -4364.84187 -4380.64442 -3991.68352 -3413.34112 -3335.07790 -3724.80873 -3981.54833 -4187.80185 -4315.22510 -4067.89142 -3424.63616 -2454.14686 -2359.73394 -1915.98169 -2882.34160 -2939.22199 -3218.47928 -2863.57120 -3063.91856 -3404.86574 -3426.65626 -3732.20055 -4147.18717 -4242.44145 -4269.25190 -4255.98197 -4240.61306 -4188.49840 -4106.57592 -4019.11674 -4017.93671 -4008.96689 -4004.67835 -3986.66859 -3953.46799 -3916.33368 -3903.32845 -3862.61208 -3844.33129 -3789.08863 -3750.14880 -3699.82465 -3658.78826 -3608.98253 -3545.80726 -3494.92380 -3459.26967 -3396.43552 -3367.76353 -3332.11427 -3336.29487 -3363.39316 -3395.99650 -3449.37154 -3522.04198 -3616.93774 -3642.64167 -3601.13190 -3552.46680 -3524.43156 -3505.83742 -3486.97182 -3499.66245 -3501.68636 -3481.52686 -3481.36311 -3473.35696 -3468.61631 -3463.08208 -3430.46923 -3389.67118 -3363.11517 -3343.68999 -3333.87924 -3328.95304 -3317.43448 -3313.90878 -3306.66486 -3301.97639 -3302.01758 -3301.12554 -3298.24579 -3315.26000 -3313.49757 -3316.36564 -3322.01639 -3317.12664 -3325.65612 -3329.80625
-5834.37305 -5826.80602 -5826.41094 -5824.53710 -5814.43561 -5818.25602 -5816.77900 -5819.76917 -5807.56883 -5799.39230 -5802.53767 -5785.32223 -5784.58775 -5764.66413 -5760.06427 -5742.65822 -5731.95793 -5723.98078 -5712.91158 -5702.12141 -5695.00640 -5678.17254 -5669.73538 -5640.40428 -5637.96452 -5626.25718 -5598.34327 -5577.49924 -5553.10350 -5547.24791 -5536.87370 -5538.22900 -5553.11290 -5549.52327 -5581.60816 -5599.17693 -5618.08012 -5642.04679 -5677.54893 -5656.33897 -5603.86956 -5069.55068 -4472.49500 -3242.12880 -2758.53613 -3014.09193 -3480.88675 -3899.25864 -4048.51491 -4060.06186 -3026.64320 -2329.01374 -2696.55420 -3392.18092 -4518.19984 -4766.96879 -4669.05385 -4485.74528 -4437.48933 -4561.70129 -4691.80335 -4768.86975 -4765.25386 -4600.48085 -4563.54754 -4308.54437 -4225.64633 -4486.83331 -4401.36146 -4127.00891 -3899.35280 -4214.32296 -4088.12342 -4009.85510 -4046.08998 -4223.90396 -4251.94745 -4270.76725 -4262.47749 -4233.35978 -4201.89940 -4146.78208 -4111.60857 -4044.32865 -4021.75276 -4017.82744 -3992.83588 -3957.50316 -3942.74983 -3922.11798 -3881.83408 -3861.15698 -3839.51366 -3794.32368 -3735.02071 -3697.53068 -3652.31932 -3589.95139 -3546.58505 -3496.24601 -3451.29153 -3407.52656 -3366.39009 -3354.91263 -3368.03944 -3386.73847 -3429.08265 -3493.66955 -3577.88223 -3618.10449 -3659.19310 -3610.42366 -3567.00774 -3526.25128 -3497.47927 -3484.67542 -3472.77633 -3470.05455 -3474.80317 -3458.40275 -3452.49135 -3459.36260 -3444.30902 -3412.52614 -3379.83494 -3349.93655 -3346.61043 -3325.53340 -3314.36563 -3317.32954 -3316.74017 -3309.62566 -3304.41402 -3307.86309 -3312.15715 -3314.26766 -3307.08498 -3316.96440 -3320.41190 -3332.78447 -3327.38799 -3335.59073 -3331.36610
-5822.89847 -5820.45546 -5811.57845 -5813.47099 -5811.89578 -5806.88225 -5815.34397 -5804.14818 -5804.52180 -5799.21607 -5801.56380 -5780.54116 -5760.47964 -5738.95126 -5733.11137 -5733.92678 -5727.34359 -5709.78566 -5708.30412 -5691.02697 -5683.34044 -5673.42385 -5657.25420 -5644.05015 -5632.32291 -5608.27878 -5585.81236 -5570.32975 -5551.26942 -5548.30621 -5533.37076 -5527.79437 -5532.36973 -5543.31928 -5549.93840 -5581.97219 -5621.02436 -5617.95860 -5645.90512 -5641.08833 -5562.79513 -5290.66061 -4371.97162 -3634.62625 -3378.73939 -4068.85755 -4470.53278 -4800.10962 -4983.54516 -4614.01608 -4407.40245 -3426.12010 -3131.16284 -3690.52418 -4272.73581 -4736.15696 -4818.80469 -4795.53130 -4824.44366 -4866.45619 -4835.24878 -4800.33553 -4769.02793 -4745.80948 -4678.82172 -4654.13972 -4604.61458 -4592.36439 -4540.89844 -4469.14405 -4337.51072 -4331.18938 -4279.34500 -4322.84395 -4305.11750 -4306.32570 -4284.93058 -4258.25514 -4239.22059 -4221.90585 -4185.64220 -4140.22214 -4098.81774 -4069.41614 -4030.85042 -4020.01352 -3993.05094 -3965.63998 -3933.23975 -3898.80523 -3879.97258 -3862.72305 -3806.50197 -3767.36925 -3720.66888 -3677.51665 -3635.73472 -3601.50826 -3542.14826 -3494.17526 -3459.93217 -3428.53424 -3385.82816 -3388.06886 -3397.19645 -3429.10389 -3446.95502 -3532.56857 -3602.99160 -3683.31009 -3677.99123 -3616.46460 -3572.61039 -3502.39115 -3472.77529 -3454.71750 -3452.74442 -3441.06724 -3459.21255 -3457.32955 -3442.54022 -3437.65023 -3408.81516 -3388.74607 -3356.03914 -3351.13267 -3340.78557 -3324.71394 -3322.37048 -3314.98823 -3315.62716 -3312.27281 -3310.66981 -3313.39266 -3313.89253 -3321.73496 -3323.76201 -3318.57210 -3327.29078 -3329.14624 -3338.02122 -3341.79025 -3344.66989
-5802.75343 -5812.03083 -5807.23856 -5802.91485 -5805.00390 -5812.71395 -5794.28755 -5803.15210 -5807.01335 -5790.17985 -5787.37017 -5770.96737 -5746.63033 -5744.91332 -5732.24006 -5717.86656 -5714.82873 -5705.79698 -5699.94330 -5685.69543 -5672.43650 -5655.30366 -5642.56581 -5629.82273 -5619.05592 -5605.79203 -5574.33079 -5570.82953 -5547.92149 -5538.83387 -5522.74355 -5514.83770 -5520.70404 -5515.91759 -5533.68369 -5551.30566 -5577.30065 -5586.10334 -5616.64140 -5625.26638 -5585.19754 -5325.29849 -4751.11524 -4267.35574 -4448.77966 -4673.71753 -5174.06126 -5328.68245 -5266.65299 -5166.00102 -4586.05415 -4054.70011 -3617.29916 -3844.33314 -4039.73957 -4648.38530 -4831.18427 -4871.25629 -4869.71212 -4810.49086 -4810.48829 -4816.72643 -4778.44619 -4759.25969 -4690.05295 -4650.03526 -4639.78637 -4581.22941 -4548.47414 -4499.29723 -4453.95633 -4422.02619 -4385.31131 -4361.08935 -4341.95211 -4312.37279 -4274.52474 -4254.85535 -4222.05230 -4197.27758 -4173.89087 -4147.30198 -4114.74715 -4086.98859 -4054.88959 -4032.47133 -3981.65481 -3960.86389 -3919.13848 -3899.31355 -3872.58933 -3842.56911 -3807.02073 -3765.10424 -3718.92669 -3675.74672 -3627.51748 -3603.04216 -3546.05936 -3495.22486 -3477.22100 -3449.47763 -3415.31129 -3406.27545 -3419.54306 -3441.07221 -3497.59800 -3555.17704 -3625.82504 -3699.37186 -3682.77606 -3611.08425 -3557.07984 -3492.04600 -3454.31376 -3434.53836 -3421.19816 -3421.83675 -3425.78462 -3429.52536 -3437.66785 -3425.90161 -3403.19020 -3367.32942 -3357.48055 -3352.88477 -3328.24947 -3332.78285 -3327.85443 -3318.46856 -3312.78503 -3310.79747 -3316.11755 -3313.74772 -3309.66097 -3321.23504 -3330.71631 -3318.98100 -3342.78000 -3342.14796 -3341.79935 -3345.08783 -3341.64432
-5791.18584 -5799.38419 -5792.58393 -5803.33763 -5802.31668 -5794.73830 -5797.98116 -5796.88295 -5796.71228 -5787.96575 -5781.96533 -5770.12323 -5748.35148 -5743.43605 -5730.69943 -5724.94619 -5696.63540 -5688.53734 -5683.22382 -5663.36073 -5666.56656 -5648.93893 -5643.47015 -5614.85733 -5632.13247 -5602.53003 -5571.91182 -5559.08389 -5540.62085 -5519.06987 -5506.07349 -5502.52509 -5493.16548 -5498.86265 -5506.82153 -5512.91308 -5529.45299 -5563.60689 -5592.65645 -5600.78202 -5625.44576 -5540.13434 -5280.72608 -5039.59066 -5083.28015 -5362.90164 -5421.71229 -5402.91949 -5394.01969 -5280.07940 -5029.52208 -4838.54590 -4399.50200 -4287.09074 -4439.56965 -4654.22892 -4836.06953 -4854.15075 -4853.14510 -4830.43627 -4828.93426 -4799.27510 -4760.55797 -4725.33292 -4696.27132 -4644.91298 -4616.87487 -4568.07250 -4538.15867 -4491.46820 -4460.72784 -4418.76500 -4398.02635 -4366.39093 -4341.48881 -4300.32272 -4277.80615 -4236.28111 -4229.81293 -4195.63694 -4161.57422 -4142.82725 -4114.92695 -4084.78041 -4058.68867 -4024.39044 -3979.65468 -3961.06249 -3938.45514 -3909.58569 -3861.53124 -3828.51374 -3781.28844 -3743.41650 -3713.91890 -3674.69102 -3633.69011 -3604.14468 -3556.83657 -3518.76146 -3491.78926 -3451.96005 -3430.04155 -3428.83600 -3436.12834 -3469.60937 -3506.48523 -3587.21944 -3620.53427 -3684.18383 -3677.20866 -3612.42044 -3542.30439 -3490.96722 -3439.09843 -3415.89136 -3417.42549 -3406.82338 -3411.71450 -3419.97709 -3431.21019 -3410.44533 -3394.71052 -3364.99875 -3352.51187 -3341.62389 -3328.18146 -3327.32200 -3316.74233 -3323.53600 -3318.08642 -3319.24940 -3323.84064 -3322.10177 -3324.48471 -3332.47764 -3327.96142 -3331.77995 -3334.47936 -3343.32374 -3354.23480 -3359.09744 -3358.15107
-5794.04317 -5794.53567 -5790.96129 -5794.09225 -5784.30384 -5795.71565 -5793.56733 -5792.32079 -5783.83828 -5784.60488 -5762.13488 -5749.63973 -5728.66256 -5721.26503 -5707.85833 -5705.41197 -5691.70334 -5686.89905 -5661.64025 -5654.26288 -5644.08528 -5637.27101 -5625.77243 -5606.20620 -5596.91709 -5581.03732 -5568.79648 -5554.02536 -5538.56275 -5509.82962 -5503.45711 -5488.21583 -5481.15991 -5484.87915 -5487.64021 -5494.96862 -5521.83826 -5541.51996 -5571.78849 -5586.61365 -5612.64133 -5608.85461 -5523.97511 -5471.70416 -5429.30475 -5470.82664 -5447.57324 -5435.37849 -5351.74354 -5289.88671 -5222.95108 -4999.93150 -4855.13775 -4686.66267 -4649.44047 -4831.19253 -4869.80836 -4869.97778 -4856.28637 -4831.13905 -4813.55953 -4776.27949 -4720.36603 -4688.14170 -4660.05593 -4614.60159 -4586.52003 -4559.92314 -4504.29759 -4482.32046 -4454.77876 -4421.85125 -4361.73795 -4343.48183 -4318.80388 -4290.97910 -4265.15586 -4245.11422 -4223.89376 -4201.16572 -4176.25486 -4132.61073 -4099.99954 -4071.50113 -4045.58393 -4018.38205 -3991.54244 -3952.36172 -3925.44323 -3872.56164 -3848.38410 -3813.02597 -3778.25268 -3739.89827 -3718.33729 -3676.00068 -3640.85891 -3606.95361 -3566.21800 -3521.23665 -3492.44634 -3458.92494 -3435.12888 -3434.89804 -3457.76795 -3496.10360 -3510.12941 -3595.97235 -3664.86619 -3711.82571 -3688.54379 -3584.32180 -3543.82216 -3481.59076 -3434.91941 -3411.99369 -3391.56787 -3396.11620 -3416.09424 -3436.41137 -3413.56949 -3394.24887 -3382.20809 -3355.02978 -3341.88324 -3327.98056 -3326.05784 -3332.55869 -3325.24554 -3321.17656 -3317.83169 -3321.98210 -3326.12222 -3321.14404 -3327.49013 -3341.40013 -3338.95243 -3343.77440 -3344.51590 -3358.77727 -3357.61011 -3357.05599 -3361.41522
