-3743.51690 -3748.02754 -3755.58353 -3756.98212 -3770.52307 -3832.32222 -3933.93577 -4190.44508 -4786.23657 -5315.27826 -5607.03374 -5658.38120 -5679.16959 -5686.17672 -5689.40140 -5693.01021 -5688.86093 -5700.08923 -5695.80216 -5710.76200 -5701.21138 -5704.24230 -5699.18067 -5712.48770 -5714.56278 -5714.45580 -5706.51378 -5703.67246 -5712.77318 -5705.45461 -5705.73616 -5701.35791 -5701.47334 -5704.33426 -5698.84683 -5700.75401 -5695.34971 -5704.99580 -5690.10113 -5693.86618 -5690.02136 -5692.95062 -5670.45088 -5677.21738 -5668.10235 -5667.85467 -5660.84716 -5654.77896 -5647.53443 -5638.57333 -5625.87809 -5618.73691 -5608.25955 -5611.65822 -5600.87530 -5577.70669 -5572.14873 -5547.84022 -5537.68147 -5527.82213 -5512.71055 -5503.94642 -5499.93947 -5489.01306 -5477.09206 -5471.15632 -5454.19506 -5445.57103 -5434.99378 -5431.72932 -5409.09753 -5404.93847 -5385.97712 -5367.97787 -5337.19607 -5300.89817 -5278.04289 -5235.20242 -5189.22433 -4996.42442 -4578.83370 -4110.98278 -3632.38082 -3432.37451 -3615.32663 -5287.85017 -6841.21971 -7367.74671 -5709.11853 -2550.94201 -989.63529 -817.45482 -1838.78325 -3338.00194 -4560.76028 -4620.43498 -4498.21927 -4351.97879 -4424.43179 -4971.28254 -3599.08318 -2105.04759 -1721.33669 -1632.74132 -1719.23706 -2020.09754 -2286.18120 -3382.41241 -5901.30849 -8487.31396 -9891.93706 -10927.36236 -11574.13610 -11589.21266 -11586.68998 -11601.50315 -11509.97770 -10228.38433 -8652.04831 -5979.09733 -5142.06262 -4070.40107 -3562.45282 -3479.05238 -3470.37306 -3475.98513 -3489.38708 -3528.40185 -3559.97891 -3576.94504 -3611.48281 -3632.83842 -3665.90904 -3668.86731 -3688.70532 -3687.96917 -3699.43869 -3696.87124 -3692.34769 -3682.99699 -3664.65912 -3647.51816 -3648.46715
-3766.97850 -3755.50793 -3770.05888 -3769.74443 -3778.72236 -3793.59346 -3854.83421 -4038.66005 -4529.74471 -5112.66752 -5504.19426 -5577.40896 -5646.64827 -5678.04160 -5692.53451 -5699.85781 -5706.86331 -5702.56736 -5714.71185 -5717.42517 -5706.04008 -5709.20806 -5713.74696 -5719.81526 -5718.32673 -5726.44561 -5721.69937 -5721.01050 -5725.97461 -5708.24527 -5716.47702 -5717.17922 -5716.09495 -5712.20608 -5713.12136 -5699.48839 -5707.72898 -5709.33357 -5697.86931 -5704.13345 -5697.53453 -5687.24607 -5685.37947 -5685.23857 -5682.39847 -5669.10018 -5657.64270 -5659.60102 -5646.69704 -5638.46545 -5624.63153 -5615.69184 -5617.56809 -5602.61874 -5600.80689 -5584.58331 -5568.10254 -5544.26203 -5532.29443 -5530.41492 -5508.18766 -5502.97996 -5490.64101 -5489.67818 -5471.37560 -5465.57985 -5457.54097 -5441.03386 -5435.97211 -5417.76642 -5409.47659 -5398.53918 -5382.60127 -5363.64809 -5338.70054 -5302.05996 -5272.70162 -5244.85331 -5164.73341 -5036.86752 -4608.30891 -3964.14739 -3727.09949 -3459.16463 -3703.50007 -4802.23871 -6595.49495 -6609.57547 -5178.31560 -2322.59492 -1045.34743 -808.12957 -2253.71172 -3203.43359 -3331.09290 -3632.19487 -3759.76820 -3805.70983 -3621.91706 -3353.75963 -2575.57811 -2058.91086 -1701.74426 -1577.55052 -1881.22442 -2081.25318 -2379.23367 -4723.30830 -6805.93601 -8909.68879 -10120.42168 -11341.88321 -11577.26269 -11582.23758 -11603.55415 -11597.78029 -11528.34150 -10617.35981 -9168.77731 -6514.41485 -5030.74578 -3883.55258 -3657.66399 -3494.16589 -3470.16742 -3468.04345 -3502.77344 -3519.45478 -3541.76448 -3589.73664 -3610.76098 -3642.30330 -3670.84875 -3684.15145 -3703.75537 -3701.20457 -3718.60768 -3712.02012 -3708.82590 -3703.79554 -3691.70283 -3670.20138 -3670.24883
-3772.21827 -3768.81942 -3769.05740 -3779.81846 -3774.25278 -3799.35198 -3832.11318 -3993.46338 -4471.25003 -4936.10589 -5268.91025 -5394.97762 -5529.52009 -5578.54486 -5658.85723 -5688.53051 -5707.52594 -5720.53064 -5721.60663 -5725.26743 -5725.16608 -5725.60322 -5724.37440 -5727.79156 -5723.16955 -5718.88999 -5726.88229 -5725.53134 -5714.22907 -5723.49131 -5721.26642 -5711.41509 -5711.91614 -5717.66037 -5712.78220 -5711.80389 -5710.50477 -5714.70789 -5701.83621 -5705.10525 -5703.90159 -5701.20158 -5693.56249 -5683.64557 -5682.42046 -5674.41392 -5667.71581 -5660.99349 -5659.53143 -5650.12900 -5633.92282 -5624.91340 -5613.73200 -5607.17095 -5597.34309 -5582.64442 -5573.95654 -5553.72530 -5535.65019 -5523.98916 -5516.53210 -5504.13952 -5493.31058 -5483.97516 -5464.45174 -5459.97395 -5453.67111 -5440.40173 -5417.32662 -5410.63149 -5402.75329 -5393.71522 -5375.61292 -5352.04833 -5345.89395 -5294.13204 -5277.33851 -5222.21664 -5184.71893 -4980.79712 -4642.64730 -4108.97441 -3686.08742 -3502.25121 -3760.81661 -4637.98437 -6436.01046 -6770.83648 -4578.89458 -1627.22533 -802.25459 -742.71839 -1451.18764 -2373.38405 -2475.78482 -2637.88778 -2933.65333 -3166.48139 -3210.66779 -3069.26748 -2535.48344 -1923.53169 -1719.57685 -1600.88567 -1852.56429 -2186.33045 -2935.87403 -5366.75249 -8340.85240 -10294.39172 -11456.79557 -11546.70845 -11555.48633 -11584.25906 -11602.04636 -11591.60966 -11537.77250 -10588.30411 -9136.79947 -6258.92663 -4713.41213 -3880.63843 -3670.63178 -3483.67470 -3460.16865 -3470.40108 -3489.71254 -3516.39962 -3562.94114 -3592.33627 -3636.49659 -3664.49948 -3689.35125 -3706.31183 -3712.13696 -3725.28810 -3739.06753 -3735.36919 -3720.61729 -3724.93443 -3707.62119 -3692.91420 -3687.04954
-3783.14456 -3785.00596 -3794.29458 -3790.85378 -3794.39416 -3802.22798 -3809.30931 -3847.35752 -4079.82590 -4404.82476 -4704.09640 -5062.87696 -5032.01122 -5345.03105 -5523.42777 -5653.41824 -5713.90024 -5720.77229 -5725.77170 -5726.01549 -5729.06597 -5731.64481 -5728.75549 -5728.69061 -5729.28997 -5726.22969 -5737.05613 -5733.48796 -5733.12459 -5731.11474 -5730.93922 -5730.79617 -5722.40195 -5715.74069 -5725.74850 -5719.44298 -5726.63001 -5716.55151 -5712.69387 -5712.50664 -5711.59514 -5699.81451 -5699.13322 -5690.23917 -5678.47642 -5680.53255 -5671.07105 -5665.34568 -5653.05949 -5649.87167 -5638.22570 -5634.95390 -5626.16460 -5614.20528 -5601.27754 -5586.46526 -5568.12884 -5555.70704 -5539.25466 -5520.88486 -5512.72693 -5501.73451 -5490.72536 -5474.28165 -5470.28798 -5461.48606 -5457.72829 -5438.14525 -5420.57504 -5413.93753 -5404.75953 -5378.64786 -5368.53730 -5359.82695 -5324.32865 -5309.00886 -5262.20595 -5206.46743 -5154.65558 -4996.33098 -4715.61026 -4344.49357 -4132.93893 -3689.04294 -3650.36905 -5280.47683 -6591.29360 -6020.54160 -2817.04071 -1201.40504 -566.23741 -525.66321 -1093.58519 -1226.84151 -1575.14657 -1700.24373 -1920.43741 -2694.35067 -2684.68363 -2800.70644 -2524.27002 -2040.50282 -1621.91527 -1696.36927 -1901.24658 -2286.63927 -2981.95113 -4700.40574 -7372.51728 -9725.85417 -10749.26054 -11370.75795 -11563.89943 -11580.61106 -11600.39261 -11596.22115 -11545.19828 -10832.36401 -10012.17113 -7231.21603 -4690.04628 -3950.82609 -3624.21739 -3503.18512 -3477.42933 -3478.75659 -3491.16375 -3525.39314 -3558.33754 -3591.28874 -3626.59560 -3661.63643 -3688.03862 -3709.23228 -3721.09522 -3727.16665 -3743.55666 -3736.84564 -3731.26438 -3724.15547 -3720.77912 -3703.19667 -3701.43282
-3794.49683 -3794.88951 -3802.07202 -3793.85818 -3799.31061 -3808.99083 -3813.00774 -3844.37030 -3936.77154 -4106.59792 -4203.74101 -4381.97776 -4657.11415 -5039.47639 -5280.43464 -5582.16334 -5689.45466 -5711.87221 -5729.88374 -5734.97964 -5743.00415 -5743.96883 -5734.27745 -5749.36546 -5745.19345 -5742.60883 -5733.84981 -5746.22960 -5731.27753 -5727.40355 -5730.00897 -5731.85437 -5732.21861 -5724.76549 -5727.63035 -5721.35183 -5719.12885 -5722.27243 -5714.42506 -5714.86407 -5710.37057 -5706.12045 -5695.66827 -5693.77773 -5688.23132 -5682.93232 -5685.00643 -5683.54220 -5652.96830 -5651.94768 -5636.31852 -5629.54773 -5622.30938 -5622.45604 -5608.61427 -5599.62802 -5564.60291 -5554.72437 -5535.89197 -5520.80470 -5514.12088 -5503.20886 -5480.98711 -5477.32841 -5461.05292 -5455.94730 -5442.10141 -5437.85342 -5418.94080 -5407.24655 -5395.13682 -5376.76969 -5373.61517 -5342.81023 -5328.07319 -5310.44194 -5251.38350 -5183.05822 -5133.84521 -4907.35663 -4806.72946 -4632.78639 -4387.67613 -4110.65155 -3925.82084 -5159.57347 -5718.41728 -4766.92510 -1420.78290 -471.33321 -252.70765 -180.16803 -347.38335 -685.54350 -1011.60290 -1193.12021 -1489.11838 -1933.11453 -2496.80269 -2576.70102 -2433.50341 -1843.62371 -1554.85658 -1682.24072 -1918.83279 -2222.67488 -2892.33988 -4018.01204 -7322.37113 -9014.09037 -10552.59774 -11201.52656 -11561.12935 -11580.18343 -11582.55663 -11577.84829 -11522.12646 -10998.07069 -10026.55071 -7232.18624 -5663.03818 -4326.48051 -3730.10636 -3513.50312 -3468.35356 -3458.50319 -3483.02936 -3504.20220 -3563.05888 -3570.40255 -3622.44309 -3654.56843 -3683.78344 -3705.60726 -3721.39636 -3723.24789 -3744.19921 -3740.37247 -3734.52792 -3727.46337 -3722.70602 -3724.49119 -3713.60404
-3801.30508 -3799.85470 -3797.98203 -3806.05754 -3808.56934 -3811.73278 -3820.99361 -3823.16990 -3837.89904 -3894.58675 -3907.65371 -3949.62208 -4000.53788 -4312.29128 -5005.49495 -5250.19692 -5539.91602 -5670.96865 -5710.68570 -5737.72028 -5750.85391 -5745.09567 -5749.93942 -5752.76629 -5746.02434 -5742.32534 -5745.45653 -5744.51104 -5745.87008 -5745.29589 -5747.66822 -5744.22241 -5736.98627 -5731.94162 -5731.97582 -5731.92345 -5729.42206 -5732.92128 -5715.74479 -5721.67753 -5719.01677 -5714.31281 -5708.70852 -5699.22711 -5695.10997 -5681.97064 -5689.98441 -5674.92293 -5664.48145 -5659.61883 -5646.75678 -5642.57560 -5626.31102 -5624.64855 -5611.90316 -5585.60625 -5578.91729 -5553.68024 -5540.88066 -5530.11911 -5510.72966 -5495.79265 -5487.68105 -5474.63661 -5464.20614 -5451.82076 -5447.09536 -5432.82682 -5420.68063 -5402.16693 -5385.30491 -5376.81987 -5364.39792 -5344.85636 -5321.16269 -5316.16386 -5273.52229 -5144.11839 -5015.94633 -4879.03350 -4727.90923 -4578.88530 -4422.14150 -4264.29888 -4151.48497 -4398.07715 -5089.50058 -2959.65899 -910.07033 -236.71335 -150.91163 -98.24341 -151.37488 -135.58172 -724.87385 -1043.99244 -1568.26051 -1705.34157 -2200.97696 -2231.92067 -2176.27573 -1674.00825 -1541.35665 -1674.23899 -2059.18921 -2842.22091 -4032.06739 -4409.07846 -6903.15347 -9644.70364 -10729.55653 -11431.30653 -11556.21672 -11567.92429 -11577.70225 -11572.56937 -11557.69318 -11236.02940 -10768.90661 -9612.14810 -7509.75585 -4574.03811 -4009.33441 -3583.85768 -3487.42744 -3461.10439 -3474.10734 -3511.19147 -3547.07932 -3570.60251 -3618.07126 -3642.68929 -3668.23647 -3695.88643 -3712.65682 -3719.13042 -3727.90968 -3740.65495 -3737.74082 -3732.39091 -3737.59909 -3719.95748 -3720.47489
-3808.65316 -3803.82836 -3819.27712 -3822.97450 -3811.27070 -3821.87219 -3828.73186 -3827.45683 -3830.19277 -3840.99471 -3842.58208 -3864.29872 -3910.56436 -4027.47423 -4282.43737 -4789.24935 -5086.02915 -5531.00823 -5688.74345 -5744.15694 -5753.55270 -5756.30695 -5757.05312 -5756.99026 -5746.37336 -5756.04786 -5749.53145 -5748.59639 -5751.74568 -5749.94656 -5743.44011 -5745.74934 -5745.02675 -5740.18011 -5742.44155 -5729.63275 -5728.42077 -5736.44646 -5724.92772 -5723.96834 -5718.44645 -5713.85626 -5706.01276 -5711.62855 -5702.98545 -5699.40511 -5687.72009 -5672.62547 -5669.19678 -5661.59108 -5649.82428 -5639.90229 -5629.16390 -5630.30547 -5603.93333 -5588.73336 -5570.28838 -5558.96685 -5539.33152 -5524.74262 -5511.21387 -5501.00297 -5480.52329 -5467.41024 -5468.42720 -5449.42224 -5432.53627 -5431.02928 -5410.53122 -5399.23948 -5387.01789 -5370.05759 -5350.59800 -5337.29812 -5292.08913 -5258.15943 -5224.61565 -5150.87851 -4970.53552 -4828.09122 -4700.80731 -4426.56564 -4415.13103 -4380.74044 -4355.15519 -4112.17756 -3806.05560 -2086.35809 -199.01999 -80.28170 -28.97922 -30.36137 -63.65812 -113.85869 -449.75922 -1188.05699 -1774.67065 -1937.97731 -2158.90342 -2149.92673 -1841.29346 -1594.79241 -1465.86705 -1684.72312 -2087.03213 -3421.64764 -5214.36149 -7895.23642 -8347.27783 -9529.82799 -10646.19014 -11173.96756 -11560.53468 -11551.28135 -11559.49066 -11572.45174 -11560.16665 -11542.79842 -11274.77736 -10715.29462 -9892.19576 -5269.20758 -4199.96097 -3562.65134 -3448.95390 -3448.73302 -3459.40704 -3497.19859 -3541.42884 -3567.03216 -3599.44657 -3626.87665 -3650.07578 -3676.57667 -3700.16002 -3707.10696 -3720.87344 -3725.29997 -3723.60167 -3728.84501 -3725.05120 -3719.97417 -3717.47073
-3819.68361 -3823.17251 -3815.82624 -3829.69775 -3833.48345 -3834.82552 -3844.45599 -3832.45345 -3836.47892 -3839.63864 -3850.31090 -3839.90453 -3869.58510 -3905.87152 -4137.91486 -4409.66029 -4809.16010 -5318.38810 -5598.12691 -5709.81748 -5759.63300 -5757.27320 -5756.72924 -5760.89940 -5762.92396 -5767.01004 -5758.77889 -5757.96955 -5759.26882 -5746.43817 -5758.63766 -5745.69815 -5746.71544 -5752.01011 -5739.77479 -5739.43101 -5740.31118 -5737.05590 -5726.03607 -5737.33072 -5729.54819 -5704.48522 -5718.05421 -5708.70561 -5698.35930 -5693.58950 -5697.29899 -5683.84844 -5665.53000 -5668.02163 -5651.83819 -5648.84995 -5638.35686 -5626.71831 -5606.16160 -5595.12188 -5564.22594 -5562.73837 -5537.36781 -5525.91663 -5516.84146 -5506.28553 -5483.71866 -5478.75837 -5453.60874 -5446.02520 -5431.50087 -5420.98794 -5406.87914 -5396.54949 -5377.76229 -5363.47779 -5340.74322 -5313.76471 -5276.42211 -5209.72726 -5196.25301 -5065.18246 -4934.10484 -4754.85724 -4429.01569 -4217.43325 -4190.55236 -4156.01212 -3991.02634 -3367.86790 -2122.45171 -366.45678 -9.99704 10.65803 39.04118 44.41551 -24.98571 -121.14622 -441.68243 -1452.94972 -2032.22589 -2075.80743 -2120.88081 -2015.41487 -1731.79084 -1614.30303 -1551.75883 -1723.24287 -2178.21257 -2797.48658 -4862.85703 -7706.31875 -8950.03857 -9405.18724 -10070.61157 -10799.69097 -11463.43948 -11545.62230 -11553.31719 -11556.88450 -11561.91123 -11553.14686 -11535.51710 -11172.50405 -9658.43587 -5904.50148 -4117.96802 -3538.33289 -3420.40805 -3434.31612 -3469.74487 -3483.92651 -3515.18479 -3527.48198 -3592.33666 -3611.35563 -3636.40321 -3651.64728 -3669.02428 -3692.93575 -3699.84412 -3694.43190 -3714.02964 -3710.10535 -3712.32006 -3711.75030 -3712.92456
-3833.89559 -3827.79737 -3831.94988 -3839.35316 -3843.50165 -3846.34258 -3850.74689 -3849.28433 -3858.64527 -3856.65576 -3853.52605 -3851.76755 -3854.24472 -3870.13454 -3958.39828 -4017.66625 -4359.31225 -4728.27047 -5308.09292 -5606.83601 -5737.07656 -5759.47320 -5764.59661 -5770.74244 -5768.54259 -5766.87321 -5773.85776 -5769.60107 -5760.89034 -5759.79651 -5759.60419 -5757.26647 -5762.15236 -5755.65357 -5751.51536 -5748.06215 -5746.25481 -5746.62954 -5741.01643 -5735.69428 -5732.21430 -5726.81391 -5726.93588 -5711.52308 -5710.72107 -5700.06970 -5690.71211 -5676.98175 -5678.69944 -5665.15693 -5658.72191 -5652.45485 -5641.26596 -5626.76597 -5606.38387 -5599.60706 -5581.67390 -5556.93834 -5540.86229 -5533.28333 -5506.92266 -5495.66023 -5491.41936 -5466.57357 -5456.37532 -5442.33911 -5428.80202 -5414.86257 -5404.75454 -5399.76796 -5368.53137 -5354.19942 -5335.98920 -5314.88859 -5272.75802 -5231.33459 -5144.94654 -4972.06708 -4801.09375 -4606.92828 -4125.53551 -3742.46175 -3896.67006 -3861.14223 -3054.81885 -2379.08748 -1377.42988 -68.85453 2.10490 59.75480 104.67786 59.33765 4.99077 -120.50139 -696.18610 -1562.82632 -2068.54501 -2159.60392 -2144.46757 -2027.13834 -1818.11690 -1500.66022 -1621.35499 -1844.06984 -2241.49444 -2938.24815 -4087.42596 -6174.05654 -8315.16812 -8540.51333 -9286.89029 -10468.58441 -11413.95418 -11533.15026 -11545.32618 -11548.45427 -11550.46742 -11554.74651 -11529.70730 -11231.21207 -9872.79605 -6470.37227 -3987.05957 -3553.48627 -3443.23622 -3426.91941 -3456.58907 -3478.21633 -3494.84884 -3534.18872 -3553.42212 -3582.75388 -3614.98860 -3640.15709 -3660.06514 -3672.48736 -3672.99952 -3688.40715 -3691.23738 -3701.15860 -3700.13013 -3709.08327 -3704.55627
-3847.93655 -3838.77196 -3840.64669 -3844.46826 -3851.66480 -3853.34794 -3856.29352 -3855.17260 -3868.15338 -3868.22662 -3861.60482 -3868.59705 -3859.03172 -3878.04905 -3891.56831 -3944.31042 -4169.24643 -4340.90222 -4986.05307 -5491.70455 -5697.38445 -5754.45099 -5776.00700 -5777.67068 -5779.76725 -5772.66733 -5775.07457 -5771.85219 -5766.71610 -5768.78565 -5766.69767 -5765.81508 -5763.93627 -5760.26075 -5760.51736 -5757.77337 -5747.38923 -5748.37165 -5753.28686 -5738.58526 -5739.50980 -5731.11151 -5720.49399 -5709.94541 -5705.76848 -5701.65200 -5701.47852 -5689.30497 -5684.65618 -5676.48435 -5661.50182 -5648.82256 -5640.61527 -5631.39116 -5614.55120 -5586.33426 -5572.98357 -5563.98679 -5525.55431 -5529.27755 -5509.36222 -5489.26262 -5483.82874 -5468.05804 -5449.89715 -5440.79540 -5426.23533 -5422.77556 -5393.64822 -5383.05731 -5372.68600 -5353.65610 -5358.70676 -5335.46880 -5274.46830 -5225.45191 -5029.13137 -4824.83600 -4536.73017 -4384.63979 -3996.80016 -3638.21925 -3178.12464 -3119.79802 -2695.62801 -1931.14496 -638.82114 -107.00217 -34.58814 79.53357 105.14164 28.94405 -28.20257 -102.38321 -838.13056 -1979.16561 -2186.42532 -2178.44947 -2139.56449 -1950.55686 -1589.85777 -1511.39565 -1629.99979 -1837.72469 -2358.13317 -2928.23026 -4019.09663 -6624.91965 -7844.14883 -8883.04217 -9937.39776 -11126.53930 -11471.96688 -11503.50977 -11542.92149 -11535.90279 -11540.41545 -11542.99301 -11531.29638 -10988.86565 -9754.05650 -6945.24655 -4182.70927 -3667.00473 -3461.61065 -3433.60173 -3441.13844 -3469.74609 -3492.48435 -3516.78355 -3542.04141 -3570.97885 -3600.52357 -3615.52810 -3632.65207 -3659.70439 -3652.99749 -3671.32957 -3677.85342 -3681.32643 -3678.52070 -3692.03990 -3697.14323
-3856.41762 -3851.51994 -3850.40401 -3863.80552 -3861.75949 -3870.94134 -3876.14000 -3865.68049 -3872.80244 -3872.21905 -3879.06918 -3877.70513 -3879.14627 -3876.56527 -3886.97055 -3897.00785 -3944.93377 -4060.43608 -4490.61981 -5001.21779 -5570.98125 -5727.83751 -5765.16861 -5786.38630 -5778.29016 -5787.71571 -5784.06704 -5776.07132 -5779.53434 -5773.50142 -5770.59574 -5768.49399 -5765.44200 -5766.35375 -5757.82284 -5762.06675 -5755.01867 -5757.15597 -5745.85662 -5746.91799 -5740.92111 -5731.44631 -5737.78738 -5718.70179 -5717.27085 -5705.47873 -5710.01439 -5695.61320 -5688.61034 -5668.93546 -5665.28612 -5654.99300 -5646.35938 -5634.09061 -5616.90958 -5592.52061 -5576.38452 -5549.83091 -5538.02344 -5527.18024 -5509.00243 -5496.02219 -5481.47054 -5475.39386 -5444.11547 -5442.68794 -5430.98514 -5405.61752 -5398.78643 -5384.44709 -5361.40274 -5349.13646 -5340.22958 -5326.35470 -5299.71462 -5210.41154 -4938.74698 -4634.92551 -4344.74822 -4118.20387 -3803.87255 -3317.45846 -2831.48270 -2204.82878 -1634.68197 -1320.87917 -411.41910 -124.01418 -2.44295 62.78887 78.83194 29.17543 -37.71512 -327.31546 -916.37270 -1944.52485 -2134.18660 -2183.58779 -2076.13325 -1779.47851 -1473.05319 -1379.09884 -1448.53877 -1840.05050 -2141.50950 -2725.24906 -3354.92040 -5884.41758 -8025.95689 -9233.69128 -10566.47160 -11284.64490 -11506.09353 -11518.23364 -11528.36441 -11531.35381 -11538.96678 -11547.38353 -11446.25372 -11142.57502 -8724.16967 -6549.70181 -4277.35860 -3674.26650 -3498.71733 -3431.78429 -3432.37268 -3453.66534 -3473.75758 -3498.78463 -3531.88955 -3550.90254 -3577.65690 -3590.76924 -3617.36788 -3632.81642 -3642.53978 -3646.65200 -3648.80221 -3669.15667 -3674.83774 -3678.26303 -3682.90641
-3864.35340 -3864.82330 -3858.84816 -3861.74040 -3864.18655 -3873.36163 -3882.62347 -3884.32264 -3883.37951 -3885.53543 -3894.78756 -3892.26110 -3896.55842 -3889.33352 -3887.38089 -3896.10575 -3908.97087 -3989.17740 -4270.60545 -4652.56418 -5228.28096 -5643.67664 -5739.29664 -5778.43735 -5788.99522 -5792.38862 -5797.55280 -5783.22098 -5785.90035 -5782.81409 -5784.20754 -5769.26853 -5777.44788 -5762.09911 -5769.45277 -5765.83017 -5760.07213 -5768.86047 -5757.27647 -5745.04607 -5744.97154 -5741.57986 -5734.54714 -5719.30583 -5718.81573 -5708.46903 -5710.44790 -5690.58697 -5686.26265 -5679.20035 -5669.86187 -5670.21968 -5649.92224 -5644.01908 -5620.04248 -5589.61634 -5575.43264 -5552.75259 -5540.50263 -5532.12000 -5508.12647 -5500.90888 -5485.68366 -5465.10741 -5444.19486 -5426.32775 -5425.43555 -5399.77768 -5391.97565 -5365.93458 -5355.45772 -5350.57921 -5310.44993 -5293.72227 -5289.92125 -5216.46975 -5015.13730 -4781.87027 -4380.84069 -3869.63633 -3421.99785 -2880.68682 -2156.34010 -1732.62512 -1264.30190 -984.88083 -215.88227 -93.94855 -34.37283 19.96070 54.91044 -18.33242 -63.23609 -204.83700 -366.23344 -1153.42950 -1715.51821 -2098.88367 -1932.55680 -1705.03914 -1248.75873 -1202.86244 -1338.11112 -1854.16235 -2537.65851 -3264.35528 -3732.85782 -5419.64789 -8277.12605 -9484.47448 -10159.42737 -11007.21240 -11434.36423 -11525.14288 -11528.50011 -11528.66177 -11529.12321 -11539.41106 -11511.63598 -11241.38560 -9438.58818 -5515.09575 -4027.01119 -3563.46137 -3484.88824 -3414.64117 -3417.78431 -3443.04157 -3467.67606 -3484.76685 -3522.07760 -3533.09286 -3566.59987 -3578.82555 -3602.92221 -3611.35051 -3627.80172 -3637.74628 -3641.96021 -3647.29421 -3653.40790 -3661.95941 -3659.25085
-3873.95246 -3874.70887 -3880.08911 -3873.44207 -3881.61636 -3882.95641 -3897.04217 -3890.89529 -3892.35178 -3897.65035 -3892.42555 -3891.57303 -3894.89385 -3898.21596 -3905.28750 -3899.55867 -3903.61160 -3933.57523 -4050.68935 -4249.77518 -4846.91752 -5410.52723 -5665.51834 -5754.50497 -5788.87965 -5793.98919 -5797.18398 -5790.44083 -5782.22228 -5779.65246 -5787.47511 -5773.82937 -5788.21143 -5774.41058 -5774.97203 -5777.40964 -5769.81443 -5761.84597 -5763.14080 -5762.44850 -5747.39110 -5746.55296 -5739.79614 -5734.98397 -5720.69089 -5714.83367 -5708.41038 -5699.97811 -5695.98711 -5687.01243 -5662.14461 -5657.15632 -5650.24411 -5642.19204 -5627.87878 -5602.85176 -5579.69693 -5568.81470 -5547.74141 -5533.87854 -5511.80016 -5491.22375 -5484.87312 -5464.26432 -5448.33072 -5429.70364 -5414.02826 -5396.93500 -5388.65801 -5366.67639 -5348.25445 -5330.57303 -5311.42415 -5280.12484 -5252.46953 -5202.52528 -5008.55142 -4738.29834 -4481.90781 -3977.38957 -3459.83723 -2391.90439 -1707.04003 -1230.07729 -981.17505 -463.81048 -284.47766 -108.44461 -41.57324 0.88163 6.69380 -46.48579 -98.06284 -155.99630 -257.63361 -455.35012 -1432.45617 -1905.89445 -1835.51952 -1553.43526 -1322.24700 -1246.94891 -1462.57418 -1650.38595 -2246.80225 -3343.01927 -4124.78554 -5573.25065 -7943.24244 -8847.89304 -9848.60950 -10827.85640 -11176.18728 -11511.54982 -11496.42978 -11473.09629 -11437.22413 -11426.14112 -11366.24106 -11084.09058 -8878.00972 -7125.60877 -4128.51616 -3655.77215 -3480.50391 -3414.86762 -3413.14482 -3430.33501 -3449.36606 -3483.90807 -3501.24026 -3532.97304 -3546.48537 -3563.90054 -3587.59045 -3602.38524 -3602.28409 -3621.13645 -3627.14719 -3629.85851 -3633.21274 -3646.26059 -3649.84003
-3885.61240 -3880.81690 -3888.78538 -3881.04995 -3891.50209 -3890.17663 -3906.50417 -3902.41825 -3895.28318 -3901.39947 -3907.32896 -3912.05374 -3912.80076 -3905.66008 -3903.29518 -3909.27441 -3910.87254 -3927.32664 -3966.35864 -4158.89546 -4451.25125 -5043.34048 -5469.73461 -5676.80657 -5788.97011 -5804.04526 -5805.20228 -5800.64282 -5792.65423 -5796.15327 -5797.71041 -5787.97334 -5788.58954 -5777.81164 -5780.82711 -5787.02142 -5782.74590 -5763.83649 -5771.33235 -5756.09470 -5758.47837 -5744.57223 -5756.81660 -5744.82252 -5730.71176 -5721.46396 -5719.50090 -5712.38141 -5703.29280 -5691.79335 -5681.75532 -5664.41482 -5649.91368 -5635.57550 -5622.23638 -5601.45518 -5571.03610 -5559.57526 -5543.65274 -5536.79108 -5504.81126 -5500.84992 -5473.53028 -5465.33065 -5448.80166 -5432.60120 -5405.53509 -5398.07125 -5374.06096 -5361.33236 -5352.21033 -5327.93374 -5295.40761 -5277.88843 -5231.18754 -5195.22281 -4958.39650 -4611.73566 -4425.36870 -3864.30830 -2965.10457 -1978.39876 -1434.39182 -1009.16189 -628.42348 -296.08587 -221.33898 -93.86509 -41.92566 -6.00642 3.50712 -17.35499 -58.81406 -96.45031 -134.53593 -266.40630 -866.88938 -1507.02786 -1680.39011 -1458.62955 -1426.99991 -1385.42009 -1487.41818 -1757.95742 -2156.20739 -2966.47174 -4257.48149 -5230.98914 -6468.19626 -8069.87611 -8933.09837 -9954.00727 -10831.76066 -11164.33541 -11340.32310 -11276.13134 -11299.56891 -11312.50616 -11318.13925 -11001.10305 -10253.85888 -7539.77949 -4649.49102 -3617.24325 -3432.13819 -3390.44536 -3402.87836 -3429.47203 -3433.12481 -3467.50831 -3496.90618 -3511.91223 -3540.47722 -3547.63752 -3572.10731 -3581.74559 -3602.15263 -3604.46234 -3614.20848 -3620.12821 -3630.66049 -3630.61898 -3630.91049
-3891.58133 -3891.64355 -3893.95224 -3901.39704 -3895.73119 -3895.92930 -3905.47406 -3901.65822 -3905.52363 -3909.81451 -3910.92043 -3918.04181 -3916.95260 -3907.95916 -3912.16417 -3927.84480 -3923.35698 -3924.29854 -3932.03277 -3977.72988 -4147.47111 -4641.00028 -5220.66982 -5535.18270 -5782.78587 -5809.65372 -5810.34526 -5805.99691 -5804.46395 -5801.09262 -5792.79140 -5795.89784 -5797.77626 -5799.09202 -5794.20386 -5785.79071 -5780.00462 -5780.97747 -5779.42845 -5771.41804 -5771.30891 -5766.23114 -5758.22517 -5754.86604 -5745.03344 -5723.72225 -5721.14147 -5710.88876 -5695.72042 -5691.14299 -5680.07459 -5671.12053 -5662.08372 -5645.61531 -5622.61153 -5605.01277 -5570.01586 -5559.78246 -5537.48977 -5536.94575 -5511.02957 -5500.23499 -5484.65790 -5449.78143 -5454.47364 -5433.38992 -5406.63186 -5391.66346 -5361.95951 -5362.64241 -5331.42413 -5307.34323 -5284.57801 -5253.48759 -5172.46197 -4999.35850 -4868.02489 -4576.91157 -4058.19255 -3321.03687 -2159.80438 -1561.12903 -1069.69920 -742.32791 -437.82892 -280.81661 -158.36774 -98.24916 -42.64142 8.98932 11.35837 -16.64770 -45.34920 -86.60036 -107.02239 -181.23947 -458.69627 -641.05308 -1122.20485 -1353.00816 -1161.82460 -1107.83303 -1405.89746 -1769.37573 -2073.27345 -2731.48599 -4221.92616 -4531.19353 -5884.36147 -8368.54304 -8819.02765 -9274.36010 -10162.60458 -10559.91730 -10873.38751 -11127.11887 -11135.42276 -11160.78711 -11109.82719 -10685.59961 -9508.01724 -6783.21944 -4907.20462 -3570.29404 -3376.80942 -3373.07649 -3406.36442 -3419.25647 -3437.81316 -3461.04671 -3478.89592 -3497.64246 -3525.99334 -3542.56089 -3563.14316 -3568.58079 -3586.16824 -3592.63413 -3598.12530 -3605.23666 -3603.75451 -3611.01919 -3610.11591
-3913.85517 -3897.90949 -3902.30594 -3909.37343 -3898.87025 -3917.20180 -3916.01531 -3914.30937 -3923.16298 -3917.66399 -3919.31311 -3925.11648 -3924.63562 -3924.81414 -3920.66655 -3930.10244 -3922.73119 -3931.29327 -3935.97892 -3948.73744 -3994.25619 -4279.82736 -4744.81770 -5242.81973 -5695.18792 -5787.21167 -5811.16927 -5818.93993 -5816.12667 -5808.76307 -5813.82946 -5803.45125 -5810.02497 -5812.82220 -5803.95534 -5789.88530 -5768.86247 -5782.40394 -5775.34840 -5782.43507 -5771.61825 -5781.00886 -5772.87496 -5753.73702 -5738.14961 -5738.61040 -5732.66910 -5713.99550 -5720.19055 -5692.81393 -5682.80476 -5680.60084 -5662.62169 -5638.59233 -5612.01061 -5600.60404 -5584.04297 -5568.38942 -5541.10927 -5537.29218 -5518.50755 -5495.65817 -5484.01585 -5458.76915 -5446.38529 -5430.57683 -5400.75092 -5381.69942 -5368.92042 -5355.10658 -5330.47173 -5301.97466 -5225.68165 -5185.10619 -5122.35737 -4686.59309 -4530.50834 -4197.93730 -3423.90434 -2704.42350 -1567.74902 -717.66271 -428.39280 -350.28519 -241.07193 -155.19793 -96.33753 -63.28536 -29.35654 32.87496 41.47687 28.10135 15.82834 -5.94007 -82.47433 -76.47144 -143.40702 -261.62275 -277.42726 -537.09866 -585.50514 -897.32053 -1326.59048 -1624.60937 -1904.63231 -2215.51281 -3477.81181 -4852.25119 -6080.58675 -7614.08330 -8197.55614 -8920.23891 -9614.86880 -9996.89297 -10574.12076 -10979.59106 -11066.08438 -11019.27432 -10904.19857 -10747.47909 -9492.62987 -5936.68759 -4300.80357 -3461.29955 -3356.65415 -3363.56031 -3386.45609 -3408.64419 -3421.93668 -3435.35000 -3466.64599 -3492.23536 -3512.02774 -3527.26896 -3551.23131 -3566.01895 -3576.55492 -3582.85636 -3586.15705 -3595.74655 -3596.34388 -3599.67415 -3596.64865
-3911.95971 -3913.83324 -3911.37632 -3909.13574 -3923.11494 -3922.78788 -3917.12528 -3923.12728 -3927.92928 -3925.55125 -3926.06045 -3925.42339 -3931.58090 -3926.92788 -3932.92290 -3933.59341 -3937.06940 -3931.20263 -3933.63890 -3937.62954 -3962.96389 -4104.31924 -4560.94888 -5089.17963 -5528.78850 -5765.69025 -5814.81202 -5833.44300 -5836.32015 -5822.80243 -5813.00883 -5818.38465 -5812.48313 -5812.23904 -5799.36929 -5770.11086 -5733.60133 -5660.28973 -5744.26754 -5748.17980 -5763.17245 -5696.63623 -5762.32898 -5773.08273 -5749.46922 -5748.22436 -5738.50798 -5716.56411 -5715.92864 -5709.18333 -5688.51892 -5684.73937 -5662.53624 -5644.17062 -5623.11972 -5602.90945 -5584.72054 -5576.79666 -5551.49952 -5533.70314 -5521.55100 -5500.84096 -5475.17693 -5465.94447 -5442.17383 -5429.19688 -5409.82681 -5382.89858 -5358.87079 -5344.87640 -5324.33838 -5293.65626 -5190.87671 -4968.28560 -4942.57378 -4637.35303 -3979.09897 -3326.23999 -2722.37013 -1613.95569 -943.07626 -534.07664 -314.15232 -166.76885 -119.80660 -106.38809 -59.46804 -20.62119 5.40224 41.28236 60.78811 74.49528 65.41453 24.14516 -31.83473 -8.07343 -83.20891 -81.71377 -111.89805 -197.85688 -490.37401 -703.22891 -982.75093 -1301.09458 -1764.35485 -2442.10262 -3637.01897 -4116.65910 -4943.22688 -6646.20082 -7460.28375 -8453.98424 -9171.49871 -9992.35179 -10733.43864 -10900.84544 -10939.95939 -10793.21257 -10747.90493 -10611.74481 -9197.55747 -5703.46153 -3874.32251 -3391.97452 -3335.88283 -3365.90116 -3381.97804 -3396.45370 -3421.08403 -3432.57898 -3450.46500 -3474.33087 -3499.29008 -3511.59059 -3538.36492 -3555.27819 -3569.30527 -3566.49329 -3585.26506 -3585.51588 -3589.76378 -3597.88572 -3589.20708
-3912.98372 -3916.06376 -3924.11415 -3927.57149 -3925.94539 -3922.93010 -3934.77034 -3936.04433 -3945.48237 -3936.76254 -3945.16791 -3937.15212 -3937.80309 -3930.93096 -3945.95952 -3941.39501 -3949.55160 -3945.24256 -3940.45953 -3942.59069 -3966.17124 -4006.55494 -4211.25271 -4723.67644 -5391.16548 -5741.13595 -5808.17837 -5833.35013 -5830.92480 -5829.45036 -5817.23887 -5819.34429 -5808.33014 -5805.19778 -5709.98342 -5682.23651 -5500.57833 -5365.67854 -5462.44612 -5252.96700 -5537.85992 -5542.90580 -5588.84146 -5714.55609 -5737.69527 -5742.87546 -5743.14388 -5727.44378 -5717.77488 -5710.57115 -5706.62731 -5698.79599 -5661.93675 -5641.42713 -5625.91586 -5604.15760 -5591.18400 -5579.20129 -5550.79468 -5537.26572 -5525.06508 -5495.95997 -5475.81390 -5468.12754 -5447.24256 -5411.17652 -5398.25049 -5380.83855 -5346.67252 -5329.29735 -5304.09629 -5250.84207 -5126.87986 -4906.53536 -4627.94710 -4419.82878 -3571.31012 -1951.31492 -1087.33176 -562.86011 -292.69906 -214.51878 -147.85371 -138.81432 -109.24247 -66.90619 -39.78091 7.01341 40.39146 81.26291 111.00809 119.19897 89.00904 28.55667 9.58343 28.16342 -10.29063 -38.05882 -82.36216 -166.75320 -229.76413 -466.18819 -777.28915 -1206.39303 -1464.53594 -1789.08014 -2593.21379 -2834.73096 -3493.56924 -4663.86823 -6896.76758 -7823.04076 -8677.07354 -9596.74640 -10604.84648 -10745.36543 -10743.05316 -10519.52329 -10362.64054 -10276.59362 -8508.45967 -6155.07020 -3703.85050 -3389.22046 -3333.35911 -3340.63713 -3379.53988 -3386.10787 -3406.27924 -3425.67911 -3445.94642 -3460.44685 -3483.59077 -3503.24913 -3526.00896 -3538.76182 -3547.48528 -3564.02087 -3571.44806 -3576.19601 -3581.02934 -3585.59816 -3586.04977
-3933.00903 -3931.87692 -3936.12528 -3927.72972 -3931.19341 -3930.29798 -3940.01640 -3945.10299 -3943.98320 -3940.44303 -3946.75366 -3942.17951 -3958.76567 -3951.62063 -3946.15359 -3943.75684 -3953.82978 -3949.77037 -3944.23069 -3950.34537 -3959.48972 -3988.13694 -4094.73112 -4425.01709 -5114.56263 -5608.05998 -5738.88321 -5791.75054 -5815.43864 -5823.88511 -5799.63997 -5730.01033 -5648.21055 -5582.00053 -5514.61862 -5131.03934 -4778.04347 -4394.95580 -3901.77495 -4456.94508 -5125.11855 -4744.71128 -5469.85419 -5459.59995 -5505.13830 -5600.00378 -5664.89064 -5686.55319 -5681.59121 -5684.71242 -5697.35809 -5683.58941 -5675.13083 -5639.68502 -5615.79615 -5615.92241 -5595.99836 -5585.76322 -5550.31455 -5534.84266 -5514.55492 -5492.97035 -5477.78678 -5454.21343 -5423.27780 -5414.26103 -5397.48097 -5338.50220 -5339.30371 -5327.57341 -5285.79454 -5272.70066 -5216.44098 -5040.99974 -4617.92763 -4360.16103 -3157.05793 -1435.15170 -596.54924 -270.74342 -224.05952 -137.05363 -112.25982 -32.28988 3.22693 7.24544 11.86741 24.80264 41.90968 95.40552 133.70444 160.19468 127.38369 122.70574 139.03529 72.55326 21.52477 -7.95401 -58.56988 -64.82392 -203.45934 -426.68648 -762.57377 -1288.52615 -1566.01485 -1776.80416 -1880.97600 -2066.42624 -2809.00644 -3866.30647 -4885.70386 -5993.98914 -8037.83228 -9515.99419 -10368.97020 -10545.92782 -10358.34962 -10195.47321 -9895.37566 -9805.95170 -8758.40219 -5502.02253 -3909.16348 -3320.27602 -3302.68308 -3336.06244 -3364.14968 -3375.78732 -3396.53913 -3413.79731 -3430.87864 -3454.74246 -3469.99818 -3493.68164 -3511.69958 -3523.72918 -3540.58395 -3551.43347 -3561.49538 -3557.51851 -3568.31610 -3568.37119 -3570.56071
-3975.18648 -3971.20847 -3970.00641 -3981.06083 -3970.81930 -3962.13319 -3958.75035 -3951.19233 -3958.24207 -3957.65756 -3951.81664 -3951.36594 -3954.88238 -3962.29892 -3965.61547 -3957.78114 -3965.15900 -3962.12426 -3956.98975 -3963.92881 -3961.23073 -3983.71537 -4034.98287 -4213.88823 -4819.90614 -5005.22287 -5387.77917 -5733.99354 -5661.15155 -5755.11052 -5747.10284 -5503.15796 -5192.71403 -4728.80800 -4432.47712 -3901.84331 -3370.29663 -3286.66939 -3219.40815 -3479.05342 -3070.41451 -3901.60427 -4330.11211 -4363.82951 -5135.08147 -5049.63986 -5409.53717 -5591.87578 -5617.82850 -5629.68629 -5662.82248 -5630.43577 -5642.25580 -5627.07789 -5622.32907 -5615.31457 -5612.93421 -5577.76578 -5561.03214 -5537.28408 -5520.63107 -5496.91085 -5469.55716 -5455.66724 -5434.78758 -5353.92875 -5332.78027 -5254.85063 -5275.21249 -5253.22204 -5217.17734 -5206.70942 -5197.19187 -5163.88724 -4530.15107 -3671.49629 -1977.21634 -1153.84478 -227.15278 -168.85078 -105.98866 -76.09343 -75.28828 -11.25168 35.63976 57.74420 43.48848 77.73956 122.05679 175.95709 203.64372 193.06602 160.56267 209.83405 195.91420 113.27778 104.87891 37.58331 -22.52699 -32.53612 -131.96042 -227.74837 -582.24174 -1133.91211 -1496.18908 -1979.39745 -2037.09333 -1984.36855 -2267.46013 -2431.96194 -3821.52049 -4675.72746 -6951.93633 -8542.73484 -9757.24333 -10055.43043 -9706.51053 -9730.72128 -9466.01514 -9201.00024 -8348.34349 -4764.58189 -3728.77915 -3317.38258 -3279.26355 -3326.16228 -3367.12111 -3378.54263 -3382.65481 -3403.19290 -3421.14883 -3440.88239 -3467.42204 -3480.34480 -3495.66404 -3516.51631 -3524.83848 -3534.72993 -3543.68950 -3560.22662 -3564.31740 -3561.02639 -3563.90756
-4058.20776 -4054.48050 -4082.33934 -4050.33840 -4060.20461 -4018.66457 -4012.15903 -3997.10350 -3979.08320 -3977.03124 -3986.23573 -3969.12260 -3973.74548 -3979.63477 -3980.14371 -3986.43689 -3969.00620 -4009.78394 -3995.23730 -3986.73201 -3978.25314 -3985.20039 -3973.49755 -4125.87838 -4325.51451 -4019.41251 -4336.41590 -5009.38293 -5324.66023 -5524.48458 -5375.63040 -4909.24762 -4609.48894 -3986.03910 -3378.58369 -2927.92479 -2440.31428 -2349.88159 -2415.42860 -2408.64991 -2568.78701 -2607.44411 -2881.09710 -3284.03491 -3724.15085 -4311.99532 -4735.45590 -5116.62637 -5465.66646 -5464.30426 -5359.99572 -5504.88556 -5521.19084 -5589.26841 -5621.94801 -5614.49818 -5604.11418 -5584.16056 -5560.88764 -5528.40008 -5525.08169 -5497.59707 -5471.79846 -5449.82883 -5433.24390 -5243.20494 -5052.66919 -5115.19695 -4822.21804 -4869.72857 -4961.63657 -5080.13746 -4687.17544 -3844.67933 -3401.57118 -2275.03680 -1174.82445 -614.11273 -143.81050 -68.91163 -43.70238 2.97038 -1.26210 3.24101 86.23560 106.56538 151.64045 169.69869 137.63002 230.95366 274.77794 249.98525 221.92342 289.56631 253.85861 216.00080 79.37396 51.12062 24.42589 -48.18955 -100.71019 -151.16201 -316.98849 -661.69958 -1059.78471 -2058.72285 -2506.17890 -2701.52415 -2387.18843 -2576.83785 -3153.56531 -4925.30830 -6988.62310 -7756.40450 -8703.58492 -9186.29676 -9273.19062 -9112.65306 -8691.98131 -8412.74774 -7689.52529 -5188.40765 -3679.47038 -3296.81724 -3274.62857 -3303.18788 -3343.46878 -3359.60919 -3383.14548 -3385.95921 -3400.27535 -3422.72995 -3448.51552 -3467.17421 -3483.02925 -3497.44845 -3518.48116 -3515.70977 -3539.57281 -3545.16677 -3545.28170 -3553.73464 -3555.89051
-4238.68758 -4236.61112 -4226.25910 -4185.43576 -4181.36328 -4158.94101 -4089.08983 -4079.57711 -4086.18141 -4065.44194 -4039.44977 -4022.98161 -4002.43770 -4052.24071 -4043.27405 -4068.44752 -4077.03500 -4104.30553 -4067.80147 -4075.68810 -4028.34695 -4002.37640 -3977.19924 -3524.06308 -3244.94640 -3115.72600 -3646.54999 -3723.27313 -4112.04408 -4522.90992 -4509.80448 -3874.72532 -3147.00037 -2528.79996 -2282.24048 -2143.37266 -1849.10509 -1924.84048 -1970.69089 -1981.48210 -2118.55911 -2157.33491 -2313.59854 -2596.18534 -2947.46720 -3380.97059 -3932.32507 -4436.98865 -4954.18031 -4938.16675 -5036.15659 -5187.47157 -5177.65920 -5428.04048 -5519.02400 -5602.06179 -5588.83339 -5565.63810 -5543.13219 -5527.06876 -5517.64996 -5496.79959 -5452.91573 -5366.26569 -5148.36854 -4958.53336 -4661.53692 -4852.55854 -4493.64347 -4393.72798 -4510.90240 -4693.74043 -3518.27146 -2379.41152 -990.40341 -977.92240 -578.38430 -133.10877 -65.80468 -28.60057 9.21631 40.18917 62.50908 44.43804 55.33414 134.24110 184.05903 203.18869 173.23214 257.29153 343.34552 291.36300 350.03895 353.27708 297.68817 185.72423 120.03175 112.70245 97.11355 -35.38777 -52.11613 -85.23737 -272.27877 -398.54701 -658.28184 -1366.71907 -2555.32011 -2750.01645 -2780.44009 -2832.05728 -3464.28636 -5262.32699 -6517.86112 -6656.23874 -7508.68916 -8646.02119 -8896.52660 -8669.56185 -8184.74643 -7846.60845 -7033.96335 -5875.28502 -3784.12407 -3302.48272 -3241.92339 -3287.57997 -3332.85785 -3357.29234 -3374.98076 -3378.46838 -3400.38573 -3411.75134 -3434.99365 -3455.78119 -3472.95506 -3478.77823 -3504.75510 -3521.84341 -3533.61093 -3537.57888 -3538.67677 -3541.53143 -3546.63140
-4471.77337 -4471.35168 -4397.66614 -4411.88484 -4342.18017 -4322.68730 -4276.43249 -4286.86117 -4218.91303 -4225.39336 -4166.67214 -4122.04525 -4209.24389 -4184.28954 -4215.68423 -4199.93347 -4176.99139 -4233.94566 -4222.95196 -4207.00240 -4103.97819 -4030.26776 -3811.54541 -3228.14014 -2587.73545 -2337.42900 -2558.84326 -2806.45939 -3018.69815 -3362.61675 -3605.67440 -3593.91415 -2743.98381 -2233.41122 -1946.47293 -1615.63515 -1307.86418 -1137.62723 -1271.71856 -1140.54775 -1183.64616 -1481.77325 -2236.52497 -2330.32144 -2393.91969 -2653.51594 -2976.65442 -3410.03000 -3901.95874 -3982.20725 -4499.48288 -4319.24795 -4613.55908 -4779.88500 -5166.91796 -5508.36650 -5536.15004 -5550.31852 -5524.82552 -5519.44334 -5501.37157 -5477.06213 -5133.76371 -5015.63893 -4781.68055 -4463.21139 -4396.74800 -4206.58527 -3839.19136 -3510.00472 -3561.55712 -3477.05173 -3068.71771 -1454.97914 -440.11471 -243.61295 -90.83313 -76.25833 -21.86017 51.48533 76.45503 77.69979 124.93375 149.42167 121.85025 134.25756 196.24443 258.17239 242.81524 234.38502 332.70379 346.81621 375.77680 350.63323 280.27774 173.61403 197.40159 173.64412 88.39380 -9.41720 -33.41798 -47.40497 -132.16604 -248.69845 -542.51619 -853.13104 -1358.60302 -2352.12743 -3072.26445 -3401.53511 -3603.08370 -4812.68655 -4770.51229 -5417.43457 -6434.65421 -7526.24898 -7883.78538 -7724.89323 -7389.37964 -6795.27298 -6331.61605 -5417.63796 -3956.41919 -3322.38738 -3229.26959 -3259.06349 -3330.70348 -3340.31321 -3362.79091 -3362.44522 -3385.86840 -3402.86601 -3427.48252 -3451.24995 -3460.75474 -3479.96776 -3501.13227 -3501.58247 -3512.42735 -3527.85316 -3537.64966 -3529.43786 -3534.50448
-4647.80780 -4653.37496 -4611.23375 -4560.91311 -4557.42441 -4479.60238 -4508.71997 -4415.03903 -4402.70406 -4389.85572 -4355.92898 -4308.20921 -4317.45985 -4382.77686 -4342.99534 -4361.89234 -4495.17000 -4395.52183 -4430.95630 -4408.61488 -4315.37727 -4059.77121 -3737.38313 -2943.29373 -2280.69490 -2177.68103 -2207.96826 -2314.74698 -2326.90263 -2509.00608 -2741.56844 -2624.77685 -2395.56795 -1876.25991 -1487.53644 -942.48072 -544.34367 -509.04335 -589.27666 -639.17798 -619.01516 -1082.96427 -1527.85241 -1704.72908 -1729.44515 -2102.40197 -2123.26228 -2504.02160 -3013.17656 -3016.14314 -3504.89476 -3436.96505 -3640.01453 -4081.93293 -4165.11009 -4911.61817 -5319.47268 -5333.21466 -5232.25850 -5291.49672 -5145.45101 -5175.05743 -4774.53304 -4267.52572 -4293.26206 -3985.00750 -3675.50406 -3772.77704 -3222.15532 -2654.85996 -2446.55615 -2473.40283 -2008.40224 -1290.91774 -190.60929 -104.02194 -39.48549 -2.45894 45.16534 66.25458 97.93830 77.19977 103.90979 165.09243 149.76801 174.08453 208.50003 282.08726 304.58215 267.82124 306.92210 398.77503 395.93601 316.74458 265.20108 264.59955 261.24251 193.87537 130.55643 42.48333 26.01253 -20.75535 -96.07621 -147.09943 -317.27068 -556.73869 -1186.58267 -2528.90388 -3202.73777 -3609.75731 -3757.89143 -3904.80259 -4202.63458 -4900.71918 -5623.05223 -5807.02044 -6366.46910 -7360.78290 -6518.87314 -5742.31412 -5587.08743 -5060.06474 -4059.11217 -3366.73474 -3232.39299 -3249.66849 -3310.26879 -3336.70153 -3347.49752 -3356.53350 -3367.76259 -3389.81004 -3399.82956 -3431.09278 -3449.75362 -3462.47535 -3480.55980 -3493.74643 -3515.16571 -3513.31946 -3523.07012 -3529.56759 -3529.13191
-4736.43989 -4738.90814 -4723.41606 -4688.21242 -4708.65855 -4671.96562 -4653.00104 -4625.65936 -4636.98246 -4518.91926 -4584.82233 -4551.98203 -4569.22352 -4565.21411 -4577.42646 -4618.73965 -4589.59525 -4645.44137 -4656.51104 -4602.33500 -4457.70956 -4305.31422 -3752.11314 -2931.88187 -2390.48835 -2261.96816 -2266.51026 -2288.37352 -2251.24015 -2205.20796 -2355.32134 -2285.75457 -1944.85093 -1552.00535 -809.03048 -463.07259 -249.14659 -226.52610 -251.79372 -268.10710 -300.87827 -311.11102 -693.10976 -868.12463 -906.95670 -1212.32570 -1226.62338 -2045.53987 -2133.25830 -2303.76102 -2675.27691 -2662.41804 -2629.97368 -2581.85768 -3358.02807 -3713.29258 -4413.30797 -4526.49688 -4632.62949 -4840.48696 -4656.70459 -4174.99728 -3883.92139 -3652.80011 -3626.21326 -3300.84681 -2939.28906 -3214.90592 -2692.21164 -1794.59319 -1292.06230 -1165.47579 -874.79331 -661.81763 -188.58352 -46.43163 40.19084 17.68337 54.84503 135.83699 149.89058 143.79733 154.94730 198.79855 221.54621 214.21279 247.51591 320.13206 348.51209 349.38938 320.15405 378.01537 399.67328 345.33903 332.23984 324.38760 226.78377 168.34392 120.53796 92.94429 49.49433 -21.00011 -52.42720 -91.25838 -136.27506 -311.51700 -755.62217 -1848.17833 -3191.90353 -3757.58122 -3721.39699 -4022.10741 -4242.55421 -4681.04820 -4668.17905 -4678.38586 -5186.78452 -5578.98918 -4906.11252 -4994.13554 -5023.56074 -4657.71504 -4145.28657 -3491.83768 -3249.50374 -3244.86260 -3282.45752 -3322.49427 -3333.93172 -3357.01855 -3357.40230 -3373.89146 -3392.12095 -3413.99833 -3430.83778 -3446.95672 -3460.67407 -3492.67539 -3494.08664 -3506.64292 -3519.22066 -3518.07365 -3519.65149
-4754.93214 -4748.35483 -4761.65942 -4748.26968 -4753.54701 -4735.35555 -4724.59446 -4716.64736 -4723.88171 -4710.11875 -4667.82704 -4722.56185 -4697.34718 -4717.82231 -4729.48157 -4705.58603 -4735.25091 -4743.04491 -4741.92547 -4694.87527 -4629.97704 -4471.45544 -4066.94355 -3381.57732 -2900.21187 -2722.02974 -2808.68597 -2874.11762 -2313.96752 -2287.49203 -2323.57492 -2235.50004 -1961.85019 -956.46639 -524.49653 -360.31275 -201.14653 -180.74695 -168.77294 -167.07425 -184.86347 -212.02816 -230.32675 -237.25791 -215.95580 -218.49392 -416.77884 -1071.27882 -1006.84433 -1177.61578 -1775.32713 -1735.45700 -1854.27417 -2067.13216 -3043.45843 -2971.82120 -3251.39032 -3245.36637 -3167.53019 -3290.20302 -3566.68988 -3536.46585 -3264.22661 -2883.73456 -2749.04161 -2402.74471 -2255.68135 -1928.07214 -1456.62594 -1209.02688 -516.68832 -346.03754 -182.41569 -203.66419 -159.24895 38.10543 182.69385 33.87283 112.01258 173.31727 177.46253 215.15211 197.88044 222.48097 253.69512 268.83023 274.92104 308.82326 364.40751 403.40261 376.47424 389.90945 430.28240 394.78650 349.21902 305.40876 243.35357 212.78402 134.25290 78.06050 17.11228 2.62739 4.70814 -54.48092 -119.16587 -250.21433 -482.31992 -1463.90421 -2780.71996 -3708.49604 -3849.76086 -4023.57380 -4324.65374 -4472.05325 -4163.32867 -4587.11260 -4741.36065 -4187.40695 -4119.88678 -4390.00961 -4473.17479 -4256.10235 -4009.66469 -3598.67805 -3352.94747 -3220.88217 -3267.15032 -3314.02062 -3332.84543 -3335.75354 -3355.69331 -3359.89587 -3391.85084 -3404.13632 -3416.19900 -3433.35847 -3457.31422 -3470.31040 -3486.17101 -3492.07670 -3501.48569 -3504.22855 -3507.95259
-4766.82339 -4758.01968 -4754.84590 -4763.85349 -4757.33163 -4768.79640 -4770.70357 -4768.93146 -4770.53763 -4761.20619 -4770.53534 -4758.19412 -4762.77352 -4773.03536 -4777.98791 -4769.78324 -4774.28799 -4771.73396 -4769.73438 -4770.38374 -4723.82738 -4645.92600 -4492.10008 -3967.71588 -3653.03657 -3400.65669 -3653.74926 -3645.42244 -3271.29781 -2790.24986 -2697.27808 -2426.21165 -1832.49322 -942.53853 -495.41636 -285.85249 -188.50128 -135.68883 -81.40964 -83.73137 -124.43659 -155.08401 -156.86870 -172.52688 -137.84478 -160.14601 -227.70399 -201.96757 -246.73905 -445.84405 -598.72510 -640.29900 -1132.01547 -1397.28662 -1444.87252 -2492.16055 -2513.32325 -2500.50960 -2239.24609 -2284.74524 -2444.52645 -2703.15716 -2698.75861 -2679.50491 -2338.92005 -1948.72561 -1090.02268 -602.18643 -505.55304 -347.03629 -158.48194 -154.68855 -94.71307 -89.63367 33.75761 163.81733 345.36994 165.61162 65.34788 182.75551 212.94092 267.28765 271.42509 235.43066 273.84462 303.99039 331.24457 347.53080 394.29157 420.50318 408.46586 419.92589 453.35661 398.12049 346.30886 304.06441 248.42490 215.69754 167.83362 171.29483 91.43567 60.52529 25.16909 -9.59875 -88.27022 -151.78280 -289.37903 -919.53848 -2208.62598 -3412.60690 -4017.00725 -4215.80010 -4477.16696 -4549.76223 -4503.58782 -4595.69522 -4293.35384 -3805.72828 -3719.35241 -3742.75198 -3948.23339 -4037.87871 -3908.90115 -3679.03959 -3361.42441 -3221.86324 -3261.74729 -3290.76902 -3307.66452 -3335.35997 -3344.27219 -3351.24150 -3385.56213 -3388.75086 -3407.41713 -3421.73977 -3448.54030 -3459.36083 -3484.59973 -3485.08316 -3496.64646 -3508.07203 -3505.41009
-4765.68387 -4770.84766 -4767.84584 -4772.59586 -4772.86964 -4773.68740 -4780.11471 -4781.03623 -4785.21774 -4777.14928 -4783.67994 -4777.27642 -4785.74499 -4783.25442 -4778.33171 -4775.19136 -4774.21319 -4776.45506 -4775.61952 -4772.07677 -4775.53853 -4767.21553 -4648.95295 -4368.24667 -4250.28897 -4287.76066 -4365.99830 -4320.40378 -3866.63274 -3337.97721 -2781.40052 -2510.39352 -1255.57806 -554.90041 -427.16232 -274.26569 -221.95657 -146.68359 -56.34811 -53.08604 -90.01383 -67.61776 -97.23473 -99.21477 -117.65494 -112.41348 -126.38473 -137.09908 -163.66483 -157.06816 -181.49910 -147.80368 -147.85787 -606.59294 -702.60097 -1267.46185 -1379.15009 -1393.82484 -1618.31851 -1818.68322 -1956.82187 -2090.14733 -2393.86299 -1897.68287 -1804.45800 -961.73131 -494.29188 -343.83609 -161.45968 -116.74250 -119.49882 -103.70996 -66.21803 13.43453 119.05055 304.46041 433.08125 406.88991 83.27656 150.32881 232.45047 270.39544 310.59620 294.17132 312.82662 338.72458 349.64381 363.22825 409.86666 470.99229 479.04015 486.34502 422.43422 387.01816 326.99516 291.56230 272.58560 265.22619 242.73700 216.30360 90.79197 42.88860 14.04331 -44.50054 -98.34273 -105.70213 -248.81930 -393.53971 -1446.64349 -3035.58161 -3670.84632 -4028.39625 -4111.46327 -4200.46823 -4613.07171 -4699.11339 -4408.28143 -4299.27839 -3937.22854 -3716.21165 -3811.07752 -3815.91768 -3726.11536 -3605.22873 -3377.51852 -3264.87986 -3258.74039 -3299.01264 -3305.52936 -3318.79436 -3334.95110 -3353.71092 -3362.66025 -3371.39162 -3400.77904 -3416.61126 -3431.09457 -3449.10698 -3453.25891 -3476.92828 -3483.54454 -3496.57061 -3490.87765
-4775.73398 -4773.45723 -4769.62143 -4776.47441 -4788.95006 -4780.10122 -4788.94828 -4781.56950 -4786.17720 -4783.32153 -4795.55036 -4787.65492 -4786.16829 -4796.10639 -4786.18887 -4778.67180 -4783.44726 -4787.04976 -4785.11057 -4783.44916 -4785.71357 -4776.93237 -4763.97068 -4741.08468 -4671.43042 -4689.25248 -4699.57406 -4637.53024 -4744.59795 -4598.74346 -2020.44727 -1563.57881 -514.08268 -415.21229 -282.00197 -237.58600 -211.81409 -146.75890 -99.82140 -48.09072 -10.44942 -19.34431 -65.27717 -50.81366 -69.41104 -61.93585 -96.71206 -111.58918 -106.86204 -88.48592 -104.12911 -122.65628 -119.61012 -124.15690 -224.75260 -481.67300 -585.22738 -520.21157 -789.96103 -1035.76524 -1470.46403 -1808.14904 -1522.05010 -1227.44240 -792.44819 -414.60234 -247.92037 -167.38928 -104.16425 -70.80309 -48.62260 -31.82464 15.37389 22.34727 147.99510 269.84575 501.77845 573.43768 347.81660 185.89922 195.26747 239.74360 358.61742 344.88013 351.51703 355.96701 358.82118 388.79384 407.34708 478.10974 531.78009 503.06061 420.61574 371.18295 333.75422 311.07137 311.28728 281.56697 233.53360 173.34954 135.63868 118.24811 87.06691 3.52267 -17.15521 -30.17631 -94.55423 -291.44968 -389.89156 -1718.73921 -2536.65315 -3758.93741 -3860.82421 -3905.52622 -4343.64565 -4656.40241 -4969.39149 -4730.03952 -4672.44139 -4288.71342 -4026.55640 -3816.80511 -3703.41636 -3519.75738 -3365.12183 -3265.04227 -3258.46760 -3270.15714 -3305.89270 -3306.20205 -3326.78333 -3328.92216 -3355.00878 -3368.11218 -3382.70446 -3395.33273 -3416.88296 -3433.78536 -3452.66570 -3478.48175 -3475.64342 -3480.34793 -3483.92931
-4783.70315 -4781.04543 -4783.89929 -4792.91181 -4789.76731 -4793.37245 -4798.16223 -4785.72184 -4792.31088 -4790.22556 -4792.87869 -4798.00685 -4801.02509 -4791.67202 -4791.22759 -4789.83018 -4798.00178 -4794.27857 -4798.87270 -4795.35421 -4793.60336 -4795.15995 -4783.22116 -4771.66883 -4753.47863 -4740.51143 -4768.31930 -4963.02813 -5200.52202 -4465.28178 -1593.54906 -522.79818 -420.68137 -308.48145 -266.20173 -230.42911 -180.54076 -126.69334 -110.79395 -57.15621 23.29059 -1.49340 -1.93776 -16.96761 -24.75486 -6.60995 -28.38811 -29.16710 -52.64343 -64.42803 -58.31209 -58.60586 -82.60913 -92.73284 -104.20518 -141.07972 -184.54454 -208.33662 -224.88741 -400.02079 -564.24549 -865.20282 -736.69110 -601.10094 -275.47585 -186.38840 -136.53383 -84.77796 -91.75851 -35.29399 -7.47622 -13.28091 203.96997 266.16827 293.98130 324.18003 445.69713 557.30080 582.03967 352.85181 303.83657 281.09915 355.59270 393.86397 375.00949 386.37633 414.98769 453.28525 442.92563 482.83364 527.49197 501.84716 462.26585 410.94344 383.26166 355.95738 298.72079 262.73110 216.88256 228.40657 230.01062 139.68311 101.04499 50.73292 26.28982 -20.40253 -89.73518 -148.59445 -282.48317 -361.55503 -2598.06206 -3931.23609 -3887.13907 -3789.13617 -4437.38393 -4811.95809 -5009.99070 -5063.74228 -5034.15242 -4800.76999 -4473.91324 -4015.03295 -3619.62385 -3455.06373 -3356.32770 -3287.05130 -3270.27454 -3269.67340 -3291.72410 -3306.11219 -3309.91386 -3324.79642 -3347.70473 -3346.25203 -3372.74308 -3394.40355 -3417.73650 -3430.09132 -3442.10913 -3447.50707 -3461.92309 -3471.10565 -3479.05866
-4792.80596 -4795.17466 -4790.30185 -4795.53093 -4795.70041 -4794.53887 -4802.64495 -4797.63811 -4805.40805 -4804.15871 -4801.72452 -4804.54195 -4806.53963 -4798.97835 -4797.61283 -4803.83397 -4807.25455 -4797.88912 -4804.93897 -4793.33203 -4798.09684 -4796.91995 -4792.50852 -4783.25003 -4760.88308 -4742.94087 -4838.29457 -5041.37941 -5335.84100 -4421.17917 -1422.23088 -458.94480 -352.99914 -297.12150 -235.65989 -199.09643 -139.98372 -124.51934 -98.42749 -35.14657 45.50442 99.88441 72.03066 7.58806 64.03269 94.14927 159.70802 98.70695 33.45202 -8.65092 -37.24965 -44.56783 -46.68898 -60.87602 -63.81614 -96.30122 -126.02695 -131.76178 -164.58504 -168.32610 -146.24446 -288.81218 -274.62961 -224.97812 -163.65497 -111.86067 -72.70275 -54.65328 -49.16567 -1.46455 36.93114 15.89315 189.48940 307.98696 341.60600 426.30868 524.00563 641.88343 604.49870 441.70713 341.71030 368.87747 402.02734 431.49659 417.76212 408.38196 439.35114 466.54461 487.70608 513.32292 556.50885 527.63047 483.79154 460.98449 416.66381 389.87928 321.49532 287.20219 251.12019 251.16288 207.67415 138.92656 131.41802 98.30500 27.81655 -8.72094 -59.06749 -69.27032 -180.72103 -333.55753 -1974.52436 -2914.04342 -3556.93605 -3648.25691 -4171.29195 -4521.79489 -4946.78712 -5058.43851 -5056.40191 -5026.22300 -4568.59293 -3882.45569 -3507.06648 -3347.52795 -3349.25596 -3287.52574 -3262.39330 -3283.27362 -3286.56942 -3294.97196 -3310.10912 -3324.94859 -3333.18053 -3348.47588 -3364.42638 -3382.55863 -3400.75943 -3412.24245 -3433.97965 -3446.78698 -3456.10893 -3466.74237 -3472.52428
-4799.38414 -4794.87275 -4802.72603 -4797.54100 -4803.77247 -4812.97334 -4809.13872 -4809.88723 -4808.68399 -4804.00800 -4807.26268 -4802.83451 -4812.49143 -4806.54807 -4808.64620 -4804.99448 -4805.79276 -4804.82345 -4803.01877 -4800.65010 -4807.95846 -4796.62870 -4794.96539 -4777.75775 -4754.16593 -4745.47238 -4860.36815 -5198.11038 -4834.37145 -2348.47027 -1259.00950 -442.49133 -325.23749 -260.59455 -195.57331 -160.90206 -140.55378 -102.40998 -54.66441 -19.31564 13.67036 98.46745 113.08439 121.28890 124.53432 192.31168 202.47600 217.78829 54.98985 46.93680 45.55694 5.01289 -21.68260 -44.41152 -39.39923 -69.17763 -74.05773 -67.09318 -86.64258 -113.13233 -99.30417 -88.77634 -108.74011 -122.41824 -117.71977 -86.79250 -67.07241 -46.05426 16.45972 17.95311 133.36664 124.60863 120.49044 223.90943 258.66718 417.08723 479.51994 653.43785 685.36875 465.56846 387.31727 402.64719 433.72667 470.89285 475.38539 480.36683 505.44354 511.01086 537.74323 566.08563 583.08992 539.97038 502.46721 486.00864 444.53066 379.95445 347.04980 329.31365 317.87556 257.71996 224.74232 187.31850 180.85248 138.41036 76.11654 24.40398 -4.41637 -22.81506 -155.96663 -274.14913 -1869.42920 -2940.99322 -3342.62240 -3547.97533 -4069.07194 -4445.15710 -4896.81024 -5066.67652 -5057.56068 -5002.04072 -4549.34188 -3555.95682 -3106.30929 -3233.56813 -3255.51641 -3282.28378 -3237.00682 -3267.45249 -3281.78904 -3290.82553 -3302.09012 -3326.13367 -3331.29312 -3347.19294 -3357.45307 -3387.83245 -3397.48864 -3403.98534 -3418.80810 -3438.87099 -3447.68795 -3448.91731 -3449.70961
-4804.52111 -4801.79620 -4813.22796 -4810.94773 -4813.50537 -4821.47064 -4814.05968 -4817.80383 -4819.19196 -4819.27500 -4815.43825 -4814.49340 -4812.03540 -4813.99105 -4824.62438 -4821.06136 -4821.31150 -4820.51473 -4813.44792 -4812.58965 -4811.53472 -4803.17766 -4787.15631 -4767.43613 -4757.27983 -4771.98577 -4932.33557 -5425.74363 -5544.94714 -2410.26923 -1042.23619 -455.17593 -302.00079 -270.60508 -195.69723 -157.70436 -125.88729 -74.50128 -42.85850 2.24860 39.30500 79.35328 138.95762 197.65788 225.61848 349.97044 412.36990 293.54601 137.69345 122.11738 87.27602 28.84589 28.02091 6.50564 -21.37541 -30.73036 -50.89703 -50.13593 -58.72879 -72.92496 -58.67255 -49.83933 -52.20258 -71.87051 -62.51846 -25.45040 -12.27730 -17.85968 135.29361 152.91352 197.64894 234.46010 186.56560 174.25441 214.30637 323.79987 411.29139 624.17304 662.63446 579.12882 471.17330 424.17304 460.32838 488.17030 501.13485 520.08034 545.85677 573.10843 577.24006 593.60807 593.13305 569.47059 525.66919 528.86530 429.37092 414.39603 409.40524 391.57768 342.81936 290.99799 248.45077 235.90235 204.90395 162.60647 85.50834 36.57120 23.03169 -9.19329 -57.29578 -163.12622 -1082.48170 -3238.76529 -3615.83758 -3847.07120 -3950.41993 -4416.96382 -4915.50305 -4979.23819 -4983.18444 -4937.82175 -4426.66154 -3439.34631 -2784.18190 -2644.21606 -3181.55956 -3247.23370 -3253.67473 -3266.07435 -3277.38336 -3293.12618 -3296.78953 -3307.10542 -3325.07040 -3323.37570 -3348.26860 -3364.08046 -3380.70068 -3402.10822 -3419.93033 -3422.24633 -3434.88554 -3443.61562 -3442.17903
-4816.93653 -4815.86117 -4828.70268 -4822.17071 -4821.87440 -4819.61749 -4817.21842 -4826.12557 -4823.64277 -4833.76078 -4822.77698 -4818.20738 -4825.98970 -4816.53828 -4830.19301 -4818.19616 -4818.20346 -4824.08892 -4818.41233 -4817.07382 -4815.89704 -4818.89018 -4795.57874 -4778.52269 -4772.08349 -4815.72564 -5078.48785 -5381.91425 -3308.79320 -1323.35757 -496.01425 -372.64639 -284.58149 -230.49068 -168.10102 -114.93815 -111.98503 -65.65466 -39.43671 -4.80436 20.51272 59.01551 103.00324 148.50698 233.84065 355.15440 501.93088 420.17611 304.44698 167.28640 102.99490 62.89036 48.11229 24.15367 28.05822 -2.73461 -5.92783 -14.58243 -15.52659 -16.10300 -21.98788 -46.27537 -35.15902 -29.74711 10.54410 31.05723 21.77941 37.52378 96.97519 150.03069 232.44117 255.69797 217.83964 202.86114 228.78395 293.21269 353.68112 542.87439 594.02363 514.69070 490.25916 507.97663 511.95762 521.01775 560.89461 559.93116 587.41401 598.82811 623.65985 620.12564 614.56685 575.74292 509.31715 506.13195 464.49557 446.23115 408.76456 384.63222 341.67148 304.36955 265.44606 231.73350 183.81605 134.37734 98.17875 54.51482 45.83615 18.01781 -52.19307 -127.06682 -236.19923 -2645.51848 -3747.27583 -3924.42385 -4097.02452 -4316.17474 -4761.75638 -4927.14164 -4934.96935 -4911.51760 -4422.99090 -3790.19413 -2067.96115 -2106.13449 -2737.29326 -3232.32926 -3263.40274 -3258.87419 -3260.11362 -3290.30248 -3285.03446 -3301.92162 -3319.16642 -3326.08443 -3344.66918 -3361.46150 -3379.32634 -3388.07422 -3413.58900 -3412.12952 -3420.48865 -3432.03434 -3428.54903
-4822.30526 -4823.18491 -4825.02186 -4831.05675 -4827.13037 -4829.96344 -4829.11263 -4830.45388 -4835.63053 -4825.65464 -4826.16855 -4837.73772 -4833.78385 -4827.95603 -4827.52875 -4829.73219 -4828.21614 -4831.03770 -4821.83043 -4823.19367 -4822.35687 -4815.15715 -4812.08749 -4789.66338 -4802.44934 -4950.03782 -5193.16418 -4601.99397 -2166.23721 -650.75485 -440.86716 -335.41020 -299.14667 -231.92874 -176.35783 -115.42959 -89.09975 -63.88347 -16.57720 11.04371 32.75660 88.74746 111.12450 161.86682 290.92002 424.92385 591.19369 569.42828 369.81893 194.53077 143.04384 110.27636 81.11567 47.80692 56.43238 27.91048 19.30899 26.39533 27.69899 -2.33034 8.73875 -4.92812 40.13490 9.41136 65.29156 129.10296 93.11377 145.96067 119.20975 129.14271 199.74148 232.60663 225.57402 254.25512 282.73922 317.17345 355.38699 423.26010 451.85954 492.78079 525.78893 531.58835 551.57005 565.71206 572.30126 581.64207 617.92697 639.51480 665.91113 656.20550 630.82562 578.23795 525.27451 503.47151 501.62447 444.14186 394.10507 388.86129 369.87234 329.99313 290.79169 212.64982 186.77718 176.11747 187.35259 116.76857 84.22142 32.09960 -14.16213 -84.38858 -584.03371 -2225.07201 -3987.25465 -4176.85509 -4283.85550 -4497.29740 -4749.16788 -4887.06701 -4903.36103 -4884.79593 -4489.75069 -3699.17896 -2022.46643 -2269.51408 -2497.55668 -3136.45662 -3192.83212 -3243.61710 -3241.07587 -3276.38965 -3286.05161 -3306.37824 -3307.69547 -3321.92522 -3343.87986 -3351.06728 -3366.41179 -3383.11752 -3395.57431 -3408.14236 -3414.42982 -3426.23819 -3416.46682
-4834.14445 -4838.32963 -4835.33195 -4837.30723 -4830.98904 -4833.72780 -4845.96233 -4836.47657 -4844.20903 -4840.89472 -4834.89673 -4842.67888 -4836.96299 -4838.08551 -4836.09737 -4836.88007 -4838.66123 -4835.71603 -4819.45496 -4824.28991 -4834.00871 -4841.44997 -4838.02097 -4826.71143 -4857.24569 -4984.17740 -5210.37090 -2861.87795 -1332.92821 -603.34973 -416.09410 -345.28182 -266.86657 -229.31715 -152.69009 -127.50084 -93.71829 -61.90097 -30.14254 1.53069 46.80758 91.36829 118.21736 188.53158 258.99264 331.79849 496.58981 663.42463 440.08766 228.78679 178.79018 134.60986 116.43139 91.78903 77.09057 57.60261 58.59372 51.36786 35.45313 58.28854 31.96029 61.77301 92.73977 71.92055 146.87969 176.04586 141.60492 105.00127 148.62103 170.84922 193.79446 231.50013 266.67253 283.43487 322.77432 364.08609 373.59702 411.99763 465.25045 511.51597 534.48272 553.99746 572.01852 602.06206 603.17553 616.64713 669.59795 673.15366 694.68257 684.41127 647.14030 570.32657 562.26112 560.03140 520.77790 481.55924 429.98805 422.33540 387.61583 341.26501 307.40009 274.76957 277.21206 259.83659 210.45939 158.77069 101.37837 39.68497 -15.50876 -78.81435 -234.30693 -1576.17567 -3200.39210 -4236.16917 -4347.55611 -4524.84249 -4731.58727 -4832.54771 -4854.16775 -4835.77580 -4670.41054 -3869.47267 -2126.84688 -2015.27494 -2445.09367 -2824.26773 -2990.84455 -3209.25035 -3259.14742 -3276.19243 -3290.68165 -3291.56539 -3303.19524 -3315.55231 -3320.74983 -3346.67917 -3359.06726 -3374.56065 -3385.10464 -3397.31052 -3398.77224 -3413.21959 -3411.16109
-4837.40579 -4839.89071 -4843.96556 -4848.84151 -4842.31762 -4840.98183 -4848.56301 -4845.09056 -4857.59040 -4849.54574 -4845.14329 -4838.83446 -4841.29839 -4847.18341 -4843.59313 -4850.50061 -4841.19729 -4840.65928 -4843.00055 -4840.29152 -4845.48897 -4871.19766 -4695.06844 -4802.75442 -4815.87761 -4703.06256 -4417.26046 -2142.39288 -1263.48697 -437.54451 -375.01892 -343.19644 -259.88905 -204.20127 -167.31669 -109.77071 -89.53580 -45.72536 -24.45060 17.17487 46.46743 113.06074 148.57048 225.88049 292.37325 343.89545 399.69814 535.15079 368.83163 278.80488 195.23904 145.63342 142.88592 106.15503 96.10726 75.80410 78.56115 80.36531 78.52557 108.92893 76.87549 87.36452 151.71909 142.70716 149.11517 168.52477 158.54326 97.11812 153.78638 183.51494 221.70697 254.40994 299.34070 315.49007 357.43997 369.12677 382.82344 437.66328 465.63199 520.24211 565.01802 576.50733 608.79264 608.17452 637.26433 647.46274 682.58608 701.13637 713.76096 703.50451 666.13710 620.93833 611.27314 572.85701 510.76409 496.20984 481.51317 439.91192 430.04839 368.77940 364.94384 319.47956 297.18235 277.84584 217.16290 158.24641 83.67675 35.86821 -25.94053 -116.49027 -207.20380 -570.20369 -1897.53877 -3387.79629 -4397.62697 -4563.58741 -4768.20811 -4818.02673 -4830.19950 -4801.37764 -4475.77901 -3579.13646 -2182.62393 -1863.20430 -2020.84076 -2299.02626 -2704.64215 -3181.11905 -3261.98684 -3274.77085 -3278.48394 -3287.55712 -3304.38539 -3301.83379 -3312.24022 -3333.33842 -3345.55055 -3362.00365 -3378.65470 -3389.00730 -3393.89576 -3398.93392 -3398.81005
-4850.82844 -4854.61251 -4858.70357 -4856.49576 -4845.70596 -4857.61122 -4863.68482 -4858.65051 -4856.93218 -4863.87784 -4847.81119 -4858.04356 -4850.02452 -4855.35627 -4847.98183 -4849.93966 -4849.31387 -4856.69331 -4857.50474 -4846.01809 -4856.98889 -4893.96131 -4416.10442 -4191.81512 -3371.46751 -3706.13007 -2900.65287 -1270.27346 -529.78519 -397.47383 -311.68507 -276.29123 -200.80875 -148.78927 -122.62292 -99.58256 -62.79095 -39.30457 -2.42567 33.31076 140.30401 182.30002 171.51595 241.00016 368.55482 435.29144 510.57301 577.43747 435.45239 351.33520 229.06472 168.59139 150.00755 130.22718 109.85516 108.38492 101.90925 104.68069 113.25141 134.10623 152.98278 130.27939 129.80700 199.25982 175.87927 195.63721 171.26986 141.47764 176.54766 204.43741 233.78046 265.73913 300.89428 321.05382 346.33439 381.08728 408.05028 453.70848 486.81486 539.53786 564.57708 589.39067 602.75129 621.04491 658.99165 664.75902 705.59227 730.67600 731.31982 720.02513 707.49867 670.00287 653.02886 588.62071 538.10202 528.51265 519.75056 453.31655 427.58998 397.53569 322.74588 261.46605 224.29525 179.20586 175.10581 112.53208 35.09627 15.83476 -29.20492 -83.61890 -159.46486 -377.91057 -1063.27914 -2568.93374 -3730.85636 -4556.82540 -4781.50956 -4810.60702 -4802.55175 -4776.31879 -4380.47211 -3732.49346 -2080.56965 -1693.37616 -1816.70691 -2153.74990 -2663.35419 -3174.99510 -3228.42097 -3263.30290 -3276.03713 -3284.64473 -3294.33102 -3304.64255 -3311.97306 -3322.32881 -3338.45622 -3350.88746 -3363.57848 -3372.80795 -3378.43374 -3394.17545 -3395.72750
-4855.02591 -4857.42528 -4856.99971 -4859.35917 -4867.03671 -4856.30110 -4865.12211 -4871.98547 -4856.35017 -4857.87548 -4864.27260 -4865.99185 -4865.86422 -4870.01158 -4862.11755 -4862.07131 -4852.41245 -4853.86494 -4854.19110 -4801.87542 -4724.19315 -4629.10106 -3719.39689 -2476.65799 -2519.66453 -2907.72046 -2234.37465 -1256.88724 -444.17964 -342.81959 -283.34980 -217.67711 -169.42390 -140.56997 -128.00761 -96.22203 -37.20308 -3.70831 26.22176 99.65748 181.07532 318.54802 389.56899 345.56990 403.53922 475.10309 487.72201 443.20698 434.33275 316.44639 242.87080 186.06085 174.58588 147.52541 135.61279 118.55785 133.22509 113.11028 135.10606 174.51621 186.35544 175.08371 190.22670 244.86682 230.56764 216.83184 191.99382 185.61060 200.54260 236.40525 245.91979 270.82234 287.28463 317.81632 360.98638 408.38565 430.30589 459.88968 484.21412 524.71087 551.43302 586.75082 601.51303 624.82737 650.93828 677.19715 707.68029 759.26857 748.88172 744.78078 722.42788 700.61685 670.41283 617.46071 569.92946 547.39501 518.61059 467.40508 417.87129 359.77121 320.36286 278.57787 284.40229 186.42634 159.28876 115.85352 40.17282 -11.12338 -74.75300 -84.36368 -158.96863 -347.43665 -836.13073 -1779.89073 -3652.92005 -4511.44774 -4736.19173 -4773.62341 -4773.61266 -4730.03359 -4355.63682 -3170.78863 -2303.99588 -1607.08260 -1578.41952 -1648.89490 -2313.86376 -2877.97411 -3193.71526 -3234.34381 -3266.74241 -3279.85721 -3293.89949 -3291.37151 -3312.57888 -3312.86486 -3338.94467 -3345.45497 -3361.40502 -3364.71004 -3367.73531 -3383.86845 -3381.75607
-4863.95163 -4869.30361 -4864.72873 -4866.57305 -4876.48622 -4865.62691 -4874.42190 -4868.38580 -4868.21602 -4871.97289 -4869.07560 -4869.60151 -4880.76720 -4876.65150 -4870.18954 -4862.51204 -4833.18027 -4790.08666 -4762.55213 -4579.75255 -4307.61129 -3885.10652 -3604.75034 -2201.54040 -2009.01698 -2084.36440 -1886.20196 -1111.27762 -409.22918 -297.48048 -257.55953 -174.60383 -167.41076 -139.71475 -116.91913 -71.80325 -35.28843 9.74651 17.77973 72.46788 258.69895 330.96166 406.56893 449.65478 455.53750 425.67985 399.38088 383.96065 329.10006 265.39192 247.23316 206.89227 193.97603 169.26775 152.56796 148.63079 155.25984 156.89837 160.17235 223.27095 225.68420 242.89537 233.77673 241.64651 245.00374 240.58971 223.12712 222.96626 216.60185 240.71176 259.37057 284.32408 311.87309 334.03287 360.53186 397.64351 415.37138 461.40660 496.26610 499.22368 551.17278 562.50854 602.70035 650.35275 666.48091 690.28815 735.25868 765.82405 798.38446 774.51149 763.30761 723.24491 695.81014 635.69476 594.70150 549.41276 493.57666 456.86613 434.35698 375.44213 357.39375 340.88678 326.18618 268.48571 249.37041 170.05033 75.12489 36.22065 -24.75410 -70.64080 -109.28671 -385.29144 -982.35785 -1826.00955 -3674.92238 -4378.02023 -4685.95151 -4688.17800 -4641.51389 -4570.37643 -4225.41909 -3572.22169 -2207.68255 -1562.66144 -1513.49315 -1653.43542 -1843.29222 -2706.49573 -3062.57061 -3172.02229 -3261.22286 -3268.45850 -3290.20849 -3289.74848 -3304.24923 -3310.25977 -3324.58691 -3339.03999 -3341.15347 -3344.36774 -3364.84269 -3362.72948 -3367.42182
-4884.06090 -4880.99490 -4881.29650 -4881.88685 -4876.81273 -4873.75431 -4883.48810 -4877.75479 -4881.00265 -4879.83871 -4876.91853 -4882.66830 -4878.75638 -4873.91626 -4861.81428 -4846.34676 -4757.81346 -4634.80278 -4399.56407 -3957.23672 -3566.41209 -3369.81714 -2764.76981 -2253.52944 -1932.23351 -1370.57164 -1104.85735 -467.24929 -433.35468 -274.25150 -219.57277 -172.81870 -145.02118 -112.79636 -93.23853 -40.92784 -9.61122 16.50596 52.79152 77.05297 141.15463 238.45047 357.55509 430.44124 423.45595 399.03479 359.27641 334.15135 312.49920 284.26645 246.14942 231.09957 205.69118 189.27312 160.50395 176.30828 172.35959 189.16545 202.20469 233.60936 246.38405 263.80902 263.42463 247.42151 245.12642 269.74729 244.05914 253.23480 254.64923 252.07760 276.55420 280.06491 314.89526 335.17550 355.66259 399.88409 418.21382 453.79801 470.25568 500.08013 547.95632 556.16424 599.45797 629.47677 679.55248 703.74867 739.93210 766.35577 801.36324 804.78124 767.70240 724.65040 686.84774 621.63279 573.58736 559.66832 476.27859 457.46378 445.97412 406.69030 328.08791 287.23008 256.04985 265.11033 192.04908 121.68318 79.77940 27.32287 -16.94206 -55.25744 -154.78839 -311.73712 -828.98235 -2472.06116 -3879.97285 -4383.86842 -4647.74747 -4664.94782 -4542.96282 -4455.42542 -4212.51249 -3273.84150 -1975.99744 -1543.77390 -1537.12294 -1807.42040 -2148.60020 -2479.46249 -2971.20634 -3159.63950 -3240.59535 -3266.12634 -3290.24376 -3293.50110 -3295.50795 -3308.82494 -3316.95874 -3324.29635 -3335.18728 -3350.39089 -3352.85386 -3357.09277 -3354.45726
-4885.37840 -4888.77412 -4889.09291 -4894.02165 -4883.58636 -4892.07226 -4898.00505 -4888.50360 -4894.26437 -4894.73980 -4889.36896 -4886.31443 -4869.81231 -4850.33255 -4810.78025 -4524.90111 -4513.21421 -4155.89570 -3639.60468 -3246.50273 -2939.42434 -2130.22847 -2036.84858 -1932.81713 -1575.53088 -881.61264 -592.70705 -440.57299 -373.90882 -300.36584 -189.01040 -158.04564 -115.93481 -86.92470 -63.19838 -37.17087 -18.92858 38.44560 64.27464 96.85625 157.53918 197.07300 306.28753 438.67816 415.77329 375.59406 327.59369 309.45746 300.27814 279.83861 239.73734 230.86614 213.92928 191.05669 179.51547 177.76990 185.90223 217.78914 233.90671 242.95307 247.90939 270.40868 274.99034 278.00399 273.06790 274.29489 268.98008 272.94864 264.79062 269.64392 281.30967 298.49887 313.72076 336.23507 360.20620 384.76479 420.60146 447.30306 481.74772 520.84274 536.21018 582.96104 613.89349 613.64141 680.43562 703.27834 724.47240 774.54012 813.07215 806.94116 756.60065 713.79470 663.93475 611.23030 581.35023 565.88167 522.54328 478.77160 441.85549 411.76735 362.07495 296.66991 272.97368 244.06516 124.57315 105.33329 104.02817 63.70183 19.57193 -71.92957 -151.36508 -242.96999 -453.33363 -2323.09958 -3796.24427 -4216.48603 -4395.66111 -4535.11883 -4490.86992 -4354.21735 -4206.91299 -3044.71420 -1934.54626 -1503.45496 -1757.84094 -1945.41870 -2384.81367 -2754.80741 -3070.23406 -3220.09114 -3252.55625 -3272.02888 -3284.14869 -3290.31118 -3293.15607 -3306.76598 -3302.89633 -3319.92160 -3330.71087 -3336.59428 -3345.91923 -3345.67933 -3351.40113
-4894.61592 -4897.11354 -4890.15274 -4900.24491 -4898.17239 -4901.77427 -4901.09728 -4904.32807 -4907.38275 -4902.48203 -4895.48166 -4861.08661 -4836.41179 -4681.93594 -4530.00108 -4257.91811 -3776.39772 -3457.43049 -3040.94612 -2562.60116 -2158.78440 -2028.73617 -1957.68282 -1583.28793 -1089.85963 -641.14617 -478.64015 -403.67727 -360.25582 -292.42254 -210.62194 -136.51185 -124.92587 -98.68838 -51.45040 -39.38884 26.18478 106.63567 123.24696 125.12980 197.69957 298.80481 334.15756 424.43973 381.18613 336.02997 322.15717 294.70789 267.95109 250.07079 239.53943 237.98914 223.48861 199.41484 184.49029 204.42331 206.04046 232.20243 240.95539 254.94143 278.70766 295.09194 291.06412 293.35954 280.16127 284.22178 292.95478 276.82190 280.52747 300.99148 292.25324 306.99588 318.51015 339.62258 365.74683 385.54487 416.35912 447.34427 481.91398 521.66768 528.22780 572.11718 609.05247 625.65874 675.00440 702.72487 732.11733 767.32622 807.11400 809.05247 775.03958 712.10001 677.98155 652.24676 622.22801 576.20319 547.06869 509.67349 455.20858 412.57102 354.05800 330.94619 297.80770 202.93901 185.08300 148.82352 112.38852 81.35950 8.57506 -19.44280 -76.13065 -191.37591 -624.72860 -2620.88395 -3723.33529 -4072.32347 -4254.23622 -4318.12101 -4310.39518 -4213.53682 -3764.10748 -2649.98282 -1794.14408 -1516.26955 -1671.20203 -2248.64438 -2529.76120 -2820.07124 -3104.34968 -3228.72551 -3253.17881 -3267.73261 -3280.08630 -3279.66193 -3290.73350 -3298.57216 -3304.65740 -3316.00198 -3320.92764 -3326.69819 -3330.96739 -3337.18393 -3347.45577
-4911.28811 -4911.62534 -4912.97064 -4904.57330 -4904.38501 -4915.20937 -4910.53441 -4915.26576 -4915.99034 -4907.23143 -4896.20324 -4822.16006 -4606.54139 -4559.44433 -4215.03371 -3729.14303 -3448.23151 -3101.11912 -2587.40059 -2337.94412 -1991.82685 -1895.84372 -1797.45352 -1810.11826 -1157.51585 -590.51590 -498.34509 -378.71897 -319.13056 -248.58132 -194.35729 -130.35655 -94.49883 -71.34918 -50.79939 2.92700 78.33419 137.08287 216.17330 188.82116 219.39727 296.35777 363.03516 402.96272 342.50740 312.99667 297.20019 260.29275 263.04357 245.95412 239.10121 225.41400 211.95834 206.10556 216.94921 214.70406 227.89714 232.56320 255.25777 299.40400 305.69871 311.83816 302.72363 305.14395 299.48665 300.91283 288.91993 293.23027 293.34061 295.33238 308.86447 314.96328 339.30164 350.97016 375.87004 399.48134 420.47255 450.71095 475.42644 504.99848 531.25203 567.77855 590.70237 621.01353 662.54788 699.06731 734.77315 775.38981 801.54633 800.08372 782.38886 735.25962 704.90027 658.23462 624.13941 574.06292 547.41529 506.20480 465.40147 382.14692 347.01605 308.75615 267.12206 251.11507 221.85122 174.13999 125.80071 76.18035 20.82367 -10.82428 -83.62227 -247.20666 -846.69087 -3152.33579 -3721.63185 -4021.70050 -4127.85434 -4156.07388 -4231.99803 -4131.10995 -3584.92044 -2087.03693 -1459.71058 -1463.36549 -1821.09412 -2395.14061 -2696.93713 -3021.33098 -3173.78114 -3239.28719 -3252.75311 -3259.22651 -3264.50505 -3279.94519 -3292.68785 -3300.46691 -3305.28829 -3301.02656 -3326.22916 -3326.00352 -3331.09328 -3332.87030 -3325.50044
-4933.53429 -4931.16163 -4920.83173 -4923.49084 -4937.92468 -4929.79266 -4926.45531 -4929.62165 -4951.56825 -4970.60727 -4921.69625 -4792.02233 -4488.71912 -4135.51506 -3663.61544 -3515.47292 -3309.13022 -3127.53843 -2589.67851 -2279.57661 -2016.10093 -1832.02628 -1796.25573 -1828.07312 -1327.88964 -534.84189 -456.43085 -363.55524 -304.62936 -254.59845 -193.09669 -116.48874 -95.92232 -48.82611 15.72695 15.73752 110.70682 200.04024 283.88671 246.03887 262.62601 355.62221 392.42926 363.60150 314.12101 271.51868 277.20669 249.12923 237.76234 229.96807 231.03031 218.83173 215.36386 214.35685 216.67668 229.61604 231.90178 255.82044 297.03164 304.18260 326.31957 339.45310 323.01502 331.00740 312.76668 309.28629 301.06211 305.63448 300.00641 301.93867 305.54327 319.79425 330.80266 353.85093 369.69091 398.74862 406.66516 432.92705 487.81588 509.32518 514.37659 564.41730 584.93522 627.93708 657.91443 701.77171 737.67774 783.23813 794.32825 798.04190 770.41894 741.92994 702.42089 675.68636 635.37011 582.83190 531.29307 482.21038 464.54577 372.21150 349.13182 315.59262 259.42491 242.78419 210.60031 154.77789 126.82000 61.52410 41.84921 -29.44123 -56.62562 -103.69993 -1176.17351 -2457.44270 -3991.22644 -4036.55471 -4076.36646 -4110.68491 -4104.31174 -4063.96095 -2861.16720 -1461.01364 -1342.10355 -1488.27461 -1956.01541 -2445.12830 -2957.45265 -3133.12378 -3184.93498 -3218.77375 -3231.68019 -3255.79249 -3260.50465 -3275.73416 -3286.52051 -3292.44364 -3291.41002 -3302.43522 -3312.82792 -3304.55476 -3321.46878 -3321.44940 -3324.44334
-4942.96458 -4947.50926 -4945.15513 -4940.97170 -4948.94339 -4950.64254 -5006.32985 -5005.84194 -5034.18836 -5090.23904 -5008.51814 -4861.12608 -4529.32040 -4247.36789 -3820.32557 -3702.56773 -3550.07911 -3234.82462 -2696.39461 -2366.18865 -2041.46014 -1919.56905 -1780.92166 -1737.68231 -1401.12999 -497.24107 -436.85420 -358.61407 -271.68304 -228.61780 -156.50854 -125.23727 -73.29996 2.09566 56.65750 73.38362 117.08548 177.88932 240.65551 309.68063 386.23999 407.03244 371.59924 314.74706 276.66137 246.61874 240.90331 226.83628 230.30332 208.61898 209.27096 208.46432 213.50208 209.55360 222.89308 219.59894 253.13624 290.15145 311.42370 327.04107 347.03685 361.55097 354.26311 349.53031 331.49837 324.90179 312.84109 318.15094 315.02128 316.14805 316.97462 317.17151 331.68693 349.76957 363.42447 407.74423 406.76930 418.04005 462.60857 491.60635 520.95365 559.44305 584.47911 637.13700 661.14034 678.68856 738.56498 756.75429 801.36095 802.78787 783.25939 744.39740 680.50214 651.69996 612.29709 574.65122 537.16608 498.15154 463.26602 408.26077 375.88665 313.87434 241.49336 186.38129 177.54686 94.68750 79.75567 53.04822 22.46848 -35.13853 -66.88845 -103.70245 -1272.71429 -2353.85780 -3889.59289 -4044.53426 -4026.66214 -4063.17992 -4074.32571 -3688.89581 -2152.79202 -912.41690 -967.95678 -1439.71507 -2049.17990 -2516.19099 -2955.29876 -3149.00454 -3199.56715 -3209.06641 -3222.07581 -3266.75962 -3260.26136 -3276.23754 -3273.91406 -3291.04736 -3290.97977 -3294.17852 -3304.68849 -3310.60159 -3322.57785 -3325.27988 -3314.94207
-5000.42551 -4999.91433 -5014.67151 -5014.79352 -5025.91586 -5048.19726 -5088.17120 -5125.36483 -5144.61941 -5159.40668 -5068.54529 -4880.40151 -4671.67298 -4381.52055 -4196.24744 -4185.45993 -4035.56562 -3688.54511 -2918.75209 -2267.96907 -2068.87525 -1968.37166 -1875.29468 -1784.84376 -1057.33520 -536.08162 -445.82036 -364.62282 -267.45163 -198.96512 -158.20870 -129.33914 -49.44891 -3.95379 78.84860 119.40841 119.60831 163.52800 254.88106 313.25884 409.50474 350.95179 280.89188 262.42203 256.62879 227.06506 217.45383 201.17990 194.74764 204.61488 211.59737 197.46289 202.58919 218.29516 230.57105 256.61246 282.86971 309.71159 361.71435 396.57585 385.45418 378.93758 383.56547 369.48550 345.13611 336.03235 336.09467 315.33920 325.05941 321.57848 326.56627 326.74864 328.69931 352.10693 361.98640 382.15013 418.00946 436.00219 458.45063 499.43166 538.26673 568.15342 594.33875 615.19690 660.90322 687.13734 739.47488 765.29776 782.90868 776.22971 760.62532 715.76876 677.16279 635.87373 594.78024 552.33376 539.08130 514.68278 462.83951 418.87593 372.31604 304.53696 260.74748 207.76318 197.05213 121.42830 69.26934 28.24581 -15.49658 -55.42802 -83.14816 -188.67944 -952.78390 -2622.83975 -3969.61144 -4062.95421 -3996.24051 -3955.79679 -3780.80823 -2718.79056 -903.82030 -708.96100 -913.67643 -1226.07210 -2505.27454 -2830.98965 -3068.22757 -3148.54672 -3176.58940 -3205.25866 -3214.32990 -3244.71052 -3265.53232 -3280.08730 -3277.78820 -3290.39550 -3281.11654 -3292.03276 -3287.98954 -3310.33189 -3312.19382 -3318.76729 -3320.32683
-5178.28188 -5177.49607 -5163.37877 -5145.07713 -5149.02110 -5160.88924 -5156.99474 -5104.21426 -5088.11168 -5055.63125 -4941.97946 -4763.14394 -4752.02351 -4630.73182 -4667.90777 -4633.15032 -4357.36718 -4076.48764 -3245.83277 -2389.28954 -1872.64216 -1866.05418 -1759.64567 -1581.63925 -903.31797 -600.22565 -428.66465 -386.80432 -291.25270 -208.90582 -150.86685 -115.44349 -32.03852 -5.05836 27.99830 132.08871 218.85403 264.93819 265.85364 288.29824 314.84993 325.11134 286.62845 227.38390 215.48483 228.30315 198.43550 190.00862 177.91078 177.83944 186.02838 190.10501 192.03765 202.67114 220.22702 257.28011 281.84662 328.01688 378.48251 449.18683 448.30782 412.63762 440.33281 410.25306 357.56264 349.51196 342.90998 342.50645 330.84973 326.33153 332.62307 334.52945 342.89583 349.10802 367.24796 388.06038 401.81279 417.64824 449.36130 480.13418 528.37685 552.77915 597.58834 602.18481 641.86123 686.68422 716.89164 740.12909 747.22576 759.53903 728.12440 719.14214 673.24970 646.35224 601.71348 556.99559 509.81662 457.45089 438.09454 383.73267 317.65106 306.94248 259.44938 201.24787 185.05675 137.03781 98.20140 25.87849 -29.56167 -114.66709 -199.35306 -260.57823 -817.13640 -2953.96356 -3930.22998 -3977.06377 -3962.22417 -3922.91311 -3252.23995 -1758.96179 -770.72326 -547.70343 -1040.66185 -1618.68369 -2354.10462 -2847.93403 -3006.42784 -3118.50475 -3202.27003 -3208.71010 -3206.19277 -3245.60508 -3257.97220 -3264.38944 -3269.89558 -3279.13891 -3282.29213 -3289.90182 -3289.57562 -3305.82813 -3308.32217 -3315.47934 -3316.06688
-5320.79751 -5324.36218 -5189.21638 -5131.99733 -5092.74237 -5034.73105 -4972.96519 -4921.48317 -4891.68799 -4887.27402 -4876.09814 -4880.40975 -4850.19333 -4865.77716 -4898.05406 -4895.22437 -4722.56090 -4421.15348 -3827.50726 -2697.12027 -1542.52585 -1453.18008 -1456.32872 -1433.46627 -836.02941 -526.21944 -428.17860 -358.13984 -299.90964 -211.03614 -146.68473 -152.09093 -20.69798 10.98670 92.79575 195.32296 277.67414 329.70500 251.75349 224.17388 240.66952 287.17354 239.20051 206.98448 179.18748 185.41333 169.15395 172.30352 164.87037 166.82071 169.77270 177.54497 180.57360 205.91214 221.66292 249.96022 271.11368 330.44228 365.37434 452.77239 484.32564 498.70182 499.93842 440.43859 391.85789 380.32535 365.58004 352.11285 362.37812 344.49486 336.53891 337.39755 340.61528 359.22696 371.12080 384.00804 413.00198 433.14297 455.87795 487.68484 512.90880 547.11741 580.81013 614.69965 637.88502 663.89901 722.04680 726.51469 736.16431 738.01343 721.58306 697.70800 655.70779 630.76244 595.99633 561.31586 519.35347 449.10207 427.27464 384.64003 336.15489 290.94420 261.85806 177.33431 171.15082 131.12295 88.57087 14.71293 -54.36322 -148.25431 -195.85658 -495.01521 -1383.64679 -2727.10122 -3968.08714 -3956.02355 -3928.16930 -3880.17834 -2967.84565 -1271.45658 -552.45133 -657.19520 -1105.70417 -1818.38815 -2473.76140 -2923.43084 -3078.03453 -3193.17984 -3215.58029 -3221.42023 -3228.67983 -3248.42536 -3264.64333 -3265.32704 -3269.81919 -3282.34445 -3282.38073 -3285.26590 -3295.08702 -3294.96738 -3301.13861 -3314.05995 -3314.82425
-5028.10262 -5029.48792 -5010.04539 -4940.33609 -4939.28160 -4864.69795 -4845.33611 -4847.52348 -4860.90772 -4895.73312 -4933.59965 -4941.80248 -4944.42699 -4950.12227 -4949.57725 -4936.85049 -4861.65251 -4587.10302 -4177.32046 -2835.54301 -1823.48687 -1303.60702 -1211.59909 -982.55811 -653.06193 -488.85078 -421.78542 -360.38556 -306.37061 -219.29401 -172.77250 -126.68236 -43.88587 -3.14281 48.76434 143.94563 278.80473 321.61898 197.21458 159.34614 181.54765 218.45558 186.50140 167.01893 163.07323 144.02917 142.70124 142.49036 143.40802 135.09489 159.18732 172.64398 177.57949 205.16913 220.80864 243.40662 260.84563 291.82843 354.31300 407.43332 483.07465 538.21735 505.95260 446.77977 417.51976 399.18644 377.27169 364.22080 356.69653 349.33681 340.57011 341.66098 343.21817 361.11117 367.88873 392.43372 395.87348 420.69123 454.70897 472.05141 504.58511 540.74213 592.40475 617.08051 637.11692 662.75790 696.18761 717.76594 723.76079 707.50491 686.27850 683.62107 630.12154 621.30358 561.32714 544.32480 519.15099 456.48247 426.41523 364.75008 326.28015 288.26507 249.62920 186.43514 108.81437 70.12629 34.35182 -2.40282 -78.38173 -183.51843 -225.53127 -739.50975 -1099.42446 -2795.05382 -4282.30458 -4221.22990 -3974.48891 -3584.99485 -2428.30808 -609.24984 -445.84600 -748.08025 -1337.96772 -2098.90459 -2568.44473 -2944.97567 -3051.72575 -3160.92408 -3206.33615 -3217.35677 -3244.20145 -3251.19757 -3268.49747 -3264.79506 -3266.05658 -3279.95110 -3279.68299 -3284.18742 -3286.61375 -3298.92827 -3312.05207 -3314.02592 -3314.47916
-4837.51451 -4838.74025 -4870.68359 -4875.05310 -4867.09604 -4894.64654 -4878.35596 -4904.58403 -4945.71608 -4974.99323 -4970.34393 -4972.13114 -4976.62985 -4970.31379 -4965.40628 -4961.46867 -4942.33712 -4799.72404 -4501.99469 -3408.09015 -2105.67047 -1107.46498 -1011.02900 -828.07016 -615.42986 -489.46068 -423.39930 -360.39557 -305.25254 -271.46712 -209.29125 -166.36391 -42.11767 19.17423 131.08931 173.23869 148.44289 210.66480 197.09869 126.19825 119.14452 176.85960 132.06343 135.59723 136.45557 120.94195 116.43805 127.73441 128.41154 130.76468 143.74279 161.15290 165.07434 177.74345 198.19646 233.91351 249.08105 273.59302 300.83590 395.90804 430.71398 503.76922 514.01428 466.38201 439.49301 435.95569 402.32224 382.17930 381.10529 365.62323 352.54112 348.66271 346.36594 354.26092 365.87690 375.26626 396.63519 413.66432 443.11942 461.83352 503.86270 543.80966 568.73606 613.82199 630.84778 668.20731 686.93157 688.87101 696.28037 678.87698 661.14061 623.19134 613.99996 604.15087 586.21813 538.22850 481.98883 427.38748 417.55168 361.97909 329.97225 278.54116 234.26373 146.81213 91.73036 55.88116 21.06121 -31.76373 -88.71859 -179.05596 -258.52493 -459.95231 -1387.88944 -2667.14065 -4133.66052 -4590.33931 -4306.43557 -3298.98085 -1732.15517 -297.29189 -283.44986 -599.98736 -1070.70609 -1936.21209 -2374.53302 -2775.13320 -3033.52743 -3118.11630 -3196.87221 -3210.51038 -3238.12880 -3245.26056 -3256.75360 -3254.41075 -3265.77121 -3273.62961 -3273.55106 -3285.66835 -3288.42541 -3299.01375 -3303.96928 -3309.51669 -3305.65539
-4926.03550 -4926.69414 -4938.03183 -4925.00059 -4947.33534 -4969.76653 -4962.26296 -4981.78981 -4984.20900 -4990.26554 -4981.63939 -4989.21961 -4986.68854 -4981.29951 -4975.39491 -4976.11321 -4971.11975 -4904.16252 -4624.37038 -3805.12911 -2720.43978 -1391.96506 -1041.63358 -851.03158 -592.49822 -514.08922 -448.68897 -384.21772 -362.09971 -290.94359 -246.12208 -190.88624 -114.87459 -45.52530 90.20583 125.71550 67.94086 88.82610 107.84074 91.73100 101.42552 106.60455 98.48370 93.22507 85.44513 87.71998 94.41795 98.18361 112.13603 116.41370 129.37067 155.99704 155.46210 164.86944 185.84866 216.40631 238.67467 270.13311 301.84865 340.57322 450.13447 510.36152 552.10060 510.09017 488.25784 456.90275 428.36686 405.68837 390.24541 373.99732 363.62327 359.65217 351.18681 352.94395 358.11845 369.07090 400.53915 424.93998 448.85249 462.27536 505.27142 534.72176 563.13214 606.36012 627.47552 656.21643 674.02074 674.22412 668.10481 647.74297 638.15408 622.38494 600.26509 588.79769 556.52719 507.36816 455.08007 435.31134 386.28591 356.79756 296.79805 245.75939 199.03823 159.99144 147.87643 115.96462 79.36517 9.25089 -95.10374 -159.96587 -257.52815 -910.68901 -1672.80571 -3238.23817 -4165.58984 -4587.56046 -4312.92372 -2801.03835 -970.62433 -389.06242 -288.99830 -741.04334 -1210.33992 -1906.84555 -2364.70977 -2828.58405 -3071.77676 -3147.87050 -3174.64967 -3207.99835 -3247.88821 -3244.24650 -3258.15000 -3252.68828 -3262.18618 -3267.92624 -3278.88147 -3269.74204 -3297.20061 -3298.78556 -3308.09471 -3315.96404 -3305.80861
-4991.41323 -4996.71422 -4993.11022 -4994.58670 -4997.74019 -4996.73402 -4996.60789 -4988.23660 -4999.69911 -4996.30653 -4991.31481 -4991.02341 -5002.29359 -4994.04548 -4997.98926 -4992.63564 -4969.45168 -4908.61797 -4590.19952 -4225.23888 -2755.80065 -1499.64403 -1049.73458 -831.24357 -571.53211 -554.93120 -473.94662 -420.91677 -380.00935 -328.96503 -270.00430 -207.72714 -135.10318 -100.31484 -54.12285 -33.60401 -22.17055 15.67079 40.75886 29.65890 43.05386 25.41657 25.94552 38.58464 54.98135 54.79373 63.89340 72.39266 91.57194 104.01462 103.21326 122.63768 137.82768 159.78571 180.10063 205.97611 241.45380 253.99186 288.62535 336.79923 407.71049 482.72302 549.30730 578.64272 534.55318 510.34146 463.78278 437.57088 394.70220 407.18414 373.16191 352.02930 349.69309 361.44440 367.12570 371.99233 403.60398 423.80487 441.72637 462.84335 499.33912 529.82928 556.17577 585.00616 631.32740 631.32017 650.50530 666.16993 648.14786 617.92533 594.81442 592.83700 566.05625 537.66314 531.58181 483.61831 443.62636 414.30531 360.67953 325.62785 285.43587 242.07256 193.27600 160.25321 133.89180 79.52936 37.38364 -11.53528 -86.02730 -181.49299 -279.74701 -1067.59468 -2120.32174 -3368.37720 -4256.39809 -4585.65304 -3906.95506 -2171.72714 -1061.23125 -203.75956 -423.14172 -970.16089 -1442.62365 -1975.44602 -2505.71131 -2922.27450 -3145.85219 -3192.58341 -3210.02795 -3213.14611 -3248.49159 -3241.16694 -3252.59006 -3254.81790 -3270.85960 -3274.79066 -3271.03627 -3279.26315 -3293.08488 -3298.54258 -3295.85642 -3313.68197 -3310.09704
-5002.46921 -4997.03319 -4999.55075 -5009.10623 -5002.49347 -5001.44429 -5009.39771 -5005.93323 -5000.24056 -5000.55097 -5015.51192 -5003.81176 -5004.50559 -5008.55712 -4999.56733 -5002.42803 -4974.59992 -4789.40722 -4516.23466 -3872.94203 -2744.71249 -1500.39982 -1092.43377 -877.89372 -703.34144 -638.33327 -482.41421 -445.97084 -399.25151 -365.85265 -324.11527 -242.39663 -181.20028 -151.45142 -82.46669 -65.82278 -56.33029 -42.23069 -26.40583 -6.64482 7.53610 -22.74026 7.21515 31.71925 32.90772 30.23677 51.96282 61.34822 69.36531 82.81182 100.08762 113.64046 116.60767 149.75738 181.97178 212.04326 228.98384 253.17242 280.93677 322.16169 404.31021 467.71636 535.93840 616.04871 572.49139 549.36952 488.44240 476.67371 441.21940 422.85183 404.78154 359.01982 354.86476 355.47159 358.13722 366.34555 379.73855 404.43621 432.28685 461.32105 488.27299 517.33488 542.75128 576.00686 596.58226 630.13768 624.67193 627.41294 629.17976 599.70630 571.71395 553.61552 539.95618 514.52399 479.59439 443.82491 428.45342 371.92761 324.88777 297.52627 243.93712 230.56964 186.59771 143.29242 112.58005 50.83187 15.64540 -44.07540 -84.12884 -189.87265 -303.92192 -819.55216 -2574.85146 -4163.23923 -4623.10840 -4618.67265 -3706.39421 -2548.91450 -646.85571 -166.91846 -445.42741 -895.84503 -1731.88053 -2296.85557 -2825.02752 -2992.49584 -3181.86884 -3199.12757 -3213.93209 -3221.88217 -3233.92426 -3246.49787 -3249.68893 -3249.28333 -3265.65738 -3268.76840 -3275.00136 -3286.33278 -3281.29357 -3288.70296 -3305.01279 -3312.61146 -3305.39595
-5022.22260 -5007.78457 -5013.90353 -5018.13894 -5015.75477 -5024.78305 -5016.35578 -5018.78316 -5011.20614 -5022.05846 -5013.24382 -5013.98261 -5016.15079 -5022.58430 -5009.59864 -4996.78685 -4965.27276 -4668.31822 -4264.46343 -3456.68668 -2243.34733 -1514.68510 -1066.82020 -1004.16294 -889.98913 -660.29021 -532.07029 -486.82090 -418.17402 -408.55942 -312.01667 -264.43108 -249.44237 -200.80473 -156.34267 -114.55815 -95.45977 -84.84228 -62.04129 -40.72816 -35.81308 -29.36565 -31.27193 -4.59427 1.74860 23.41476 29.27033 41.80031 47.18143 71.24055 83.76362 96.56000 120.28485 138.95040 183.02998 206.31530 220.74976 246.86594 272.86125 317.87582 359.70625 441.76563 502.87999 587.79905 541.23622 555.09277 555.53676 529.78714 508.01546 460.45543 435.71366 378.18838 365.24970 344.43506 346.51985 357.93597 379.28026 400.47243 415.95133 455.44983 478.27805 492.73375 527.50406 547.99761 583.19247 611.74554 619.11564 620.24544 611.10461 580.39914 554.16406 511.38232 490.33592 471.19234 437.95509 412.04682 402.07624 369.71271 312.70893 279.14138 249.37807 193.52427 137.88813 125.47967 75.65068 25.16826 -12.91150 -51.45478 -105.20323 -155.68991 -245.73760 -893.95287 -1928.33461 -3769.78457 -4338.85781 -4524.16542 -4080.88495 -2911.83848 -595.25608 -169.80047 -366.88897 -1029.73853 -1660.74751 -2143.16321 -2826.17021 -3038.56587 -3195.77479 -3206.87707 -3218.58503 -3228.11165 -3236.64337 -3254.29461 -3252.26595 -3263.16862 -3264.21997 -3272.17172 -3275.91434 -3293.18484 -3293.85993 -3291.80138 -3307.53271 -3317.49775 -3311.64529
-5027.51059 -5028.91300 -5033.60759 -5033.09603 -5030.93313 -5030.16444 -5032.98201 -5024.25017 -5030.32196 -5038.23664 -5020.99937 -5019.43777 -5025.42290 -5021.18393 -5018.37808 -5000.39184 -4908.32224 -4648.55294 -3700.38546 -2781.66256 -2035.94066 -1283.21708 -1108.31705 -1039.93958 -998.43647 -809.70449 -663.13116 -519.72511 -460.92194 -444.21868 -355.65551 -333.36929 -287.64643 -254.12535 -170.56135 -141.60693 -124.14753 -93.27682 -84.63441 -61.33130 -69.76814 -60.97480 -40.81610 -28.11085 -35.41667 -2.86071 7.51350 20.01160 40.92974 54.51046 70.23257 82.44583 123.90552 131.47628 160.34488 189.10599 216.58638 239.89125 273.82401 311.89953 321.91391 400.39021 457.07240 486.44545 506.35325 504.28275 519.58605 545.64969 527.48515 494.77167 425.85958 368.55774 359.99860 327.98299 339.66102 356.17348 375.31988 394.08938 402.68492 439.96163 466.08014 494.55529 509.07522 537.68954 560.79455 588.17918 610.95954 615.27161 587.34066 548.11508 515.05947 480.27868 471.87746 454.57837 413.83258 381.06483 344.78691 311.49156 280.79556 259.28513 217.00620 177.37865 145.82027 107.45313 70.87967 19.28386 -28.37691 -45.90651 -108.26381 -183.98366 -300.75431 -1000.53513 -1709.96651 -2876.18160 -4618.17002 -4734.63890 -4420.81114 -2869.81798 -1425.19195 -596.13203 -763.70711 -1360.47476 -1818.35040 -2441.96467 -2966.14682 -3168.38123 -3190.70021 -3212.82258 -3218.44891 -3237.04138 -3244.77064 -3243.50900 -3250.66705 -3257.54127 -3261.62991 -3266.43074 -3286.76566 -3289.87877 -3288.96908 -3295.36842 -3305.57990 -3303.48425 -3310.49897
-5037.92530 -5035.49705 -5031.81326 -5042.35293 -5038.86502 -5037.28689 -5040.40254 -5038.10590 -5043.48376 -5031.84199 -5032.31905 -5027.65145 -5031.03817 -5029.10013 -5026.52857 -5001.11754 -4894.74967 -4458.56296 -3453.86722 -2647.97128 -1774.83027 -1320.74162 -1183.24281 -1064.78866 -989.75093 -824.98314 -734.14768 -672.83133 -540.05231 -446.81340 -412.90226 -375.81840 -332.49116 -272.99994 -212.64323 -145.56320 -140.76248 -128.75386 -113.29499 -112.67601 -111.25396 -84.40828 -56.44940 -49.73833 -50.46888 -22.82401 -12.30193 12.93963 29.14816 33.74511 58.37579 60.83911 98.88847 131.60080 157.88984 172.88950 223.65716 249.11998 242.81408 292.23415 329.96281 353.80719 415.52734 435.45397 447.16754 455.66077 451.84288 454.00121 473.43744 439.75377 390.12518 360.91384 348.52945 341.55105 340.36927 345.71310 368.13258 380.85626 404.51811 423.65796 435.15472 483.70525 491.62764 524.04238 554.33051 567.03720 576.47524 572.05667 556.12901 527.76933 487.86865 446.68183 442.91531 424.68583 398.77955 370.78641 328.26156 299.84751 231.48973 212.98506 182.29391 139.65084 146.93729 94.64596 43.91963 14.54530 -40.64046 -81.61899 -146.45698 -191.24100 -442.33907 -914.64678 -1764.64944 -3691.42509 -4942.96955 -4952.30448 -4778.85520 -4055.92787 -2150.51370 -1857.27101 -1967.36273 -1868.08251 -2499.02029 -2552.85957 -2972.52490 -3179.34430 -3185.92018 -3212.94449 -3217.69621 -3231.64380 -3241.06166 -3245.03492 -3249.12267 -3252.98448 -3266.40435 -3265.20380 -3273.89805 -3287.26897 -3283.83390 -3291.68641 -3305.82280 -3312.76021 -3310.70397
-5050.26398 -5040.84537 -5042.62984 -5049.56358 -5038.82370 -5043.60000 -5046.36649 -5047.92722 -5043.42426 -5047.10148 -5036.29260 -5045.03037 -5040.57724 -5033.87077 -5030.70383 -5004.52551 -4863.13939 -4538.33137 -3430.66214 -2894.73304 -1960.77943 -1541.73457 -1214.56754 -1083.51630 -990.87219 -944.10962 -857.09264 -784.52963 -708.73025 -645.17850 -530.39645 -448.36386 -345.59655 -297.32916 -233.60236 -192.35382 -181.37386 -178.70303 -153.73148 -133.13223 -125.52938 -123.58636 -109.68998 -75.12687 -61.26358 -36.03078 -25.38217 -5.10351 12.29340 29.69770 44.65205 75.88817 91.67153 121.55002 143.67275 173.90964 190.88930 226.71439 250.02104 289.22932 324.56088 344.26293 360.69928 408.58790 412.14235 399.52980 424.76592 425.26578 416.31248 398.29944 378.84060 357.61048 327.75878 323.58818 337.84782 342.88630 347.05835 368.63402 392.23524 411.69610 423.32362 449.34448 481.15944 505.77241 534.90660 547.09945 555.65321 543.51213 540.05832 528.61862 482.20424 419.84792 404.04559 389.14804 366.64540 329.03900 319.76771 301.05820 229.43909 199.04650 151.73178 118.95357 94.82297 57.70737 22.23460 0.02907 -59.25181 -112.69783 -163.83718 -298.79724 -552.14818 -1450.87605 -2688.09992 -4555.52782 -5016.60082 -4959.85194 -4833.73441 -4465.79408 -4031.41010 -3176.52044 -3096.50172 -2874.09109 -2714.29851 -2990.79962 -3081.70736 -3179.46343 -3194.59567 -3215.50287 -3231.24423 -3237.21671 -3240.34559 -3250.34303 -3259.15296 -3260.44888 -3265.97004 -3266.52115 -3280.87317 -3279.35160 -3294.90495 -3299.38207 -3307.48042 -3320.81375 -3313.22393
