49.48876 48.21761 50.85096 47.95949 55.48432 64.47516 80.48800 81.59991 81.63082 80.53337 80.01336 80.05958 80.06976 80.04049 79.34123 78.80746 80.25170 89.25490 93.16300 113.31386 121.19535 120.68870 119.34908 119.20110 120.69659 131.55365 138.65710 152.78178 159.32987 161.35082 175.43975 201.60751 215.57182 231.16574 238.92079 243.83795 258.14246 284.01426 299.21057 315.87752 336.84825 345.34447 338.08152 322.28052 316.59756 314.14601 319.25283 311.42877 291.37700 282.31335 278.83815 290.73095 301.07097 314.19633 311.02554 309.50120 311.98025 324.68683 354.88046 370.96845 391.73251 438.36777 482.47727 532.86756 561.76211 585.02229 601.43307 618.27848 628.51830 653.14909 653.69296 633.26968 583.22767 540.53050 539.94392 560.39954 595.73602 631.02927 628.37447 627.71817 622.10428 627.12372 661.57530 716.72580 748.84596 740.09421 719.60722 707.76249 685.98374 662.94160 672.56149 663.75713 649.23276 621.87504 612.84494 605.23125 599.97869 602.06276 623.05406 636.94404 639.42442 637.92783 638.35977 651.36167 664.86524 680.81391 601.16801 490.18138 339.91466 295.76461 273.72262 274.87196 238.36363 210.78098 184.88730 163.63921 133.96658 79.67376 11.33478 -7.13257 -7.64079 -2.38951 -0.52904 0.93091 1.16557 0.65974 -3.32202 -18.29124 -30.00392 -40.57086 -30.90420 -14.05969 -1.26720 1.41524 0.49561 0.03944 0.01380 -0.00231 -0.00216 -0.01291 -0.03990 0.00740 0.56277 1.56320 1.27872 -1.20582 -3.59643 -18.22151 -19.68436 -14.02707 -16.85531 -20.67237 -45.68483 -67.03713 -50.22745 -36.93270 -33.07667 -35.90420 -19.29443 -7.25803 -17.17139 -27.90339 -12.27978 -2.17806 1.09468 1.38374 0.56754 -10.51028 -29.22251 -27.89979 -8.40726 2.32716 1.64308 -6.66653 -10.01354 -9.63445 2.03715 2.94855 5.63993 0.34641 -13.79036 -36.59156 -54.96870 -72.53436 -100.59629 -125.66775 -168.70345 -197.95045 -221.50350 -262.40751 -290.26991 -330.78033 -351.97677 -394.82602 -422.17666 -432.01259 -450.33664 -454.95085 -472.32771 -518.97264 -535.66250 -534.34308 -547.16269 -568.17297 -592.45209 -591.61809 -603.12137 -625.60075 -659.46704 -691.36043 -723.55992 -772.90188 -791.35325 -844.70762 -880.51869 -919.61446 -952.57667 -980.90770 -1050.16074 -1093.19191 -1110.21097 -1120.11483 -1138.80213 -1160.01741 -1217.00963 -1246.22165 -1260.76287 -1286.20569 -1337.40708 -1380.23615 -1406.33429 -1422.13791 -1397.23983 -1387.37689 -1408.16726 -1440.81090 -1448.65837 -1439.79558 -1422.20338 -1418.37053 -1463.83476 -1493.70549 -1551.12195 -1553.58591 -1503.76163 -1418.15387 -1327.24965 -1387.90514 -1417.06217 -1475.35720 -1460.87441 -1542.84883 -1675.00208 -1766.87747 -1850.68955 -1908.08292 -1952.16932 -1935.16338 -1955.94417 -1995.36939 -2041.51325 -2086.74406 -2086.50577 -2147.24733 -2181.76099 -2211.10514 -2236.12983 -2285.87305 -2316.78547 -2297.33072 -2265.37128 -2271.61829 -2307.70133 -2309.62629 -2333.42290 -2382.23136 -2364.40235
39.46395 37.92681 40.57508 40.05763 44.16180 56.83540 66.75288 70.30525 72.74030 77.38171 81.20400 81.63340 80.86121 80.52430 80.01693 80.02080 79.30360 79.41612 89.58857 113.79866 122.04934 121.50295 120.10040 119.84937 118.51880 120.44905 133.78705 151.66276 158.22312 163.53430 178.57162 199.07000 220.70518 235.74706 242.12573 242.96630 261.79810 284.54107 296.21216 310.64579 321.66018 338.96609 336.11551 318.43352 307.00442 308.08705 316.65766 315.86731 291.86530 279.63834 278.70127 284.66518 292.38267 300.19707 295.18615 294.19388 294.33356 313.41595 348.62090 362.26955 376.06786 416.59629 456.79694 512.69674 549.59571 584.91803 600.07810 603.66572 615.78047 655.19191 667.85075 647.72507 610.97785 578.88280 560.95592 600.63370 634.21210 636.37799 632.62711 632.52839 634.63930 645.38100 682.51440 787.89048 810.82702 838.14761 789.08338 748.78301 714.70511 696.56830 688.42008 674.05442 668.63700 651.69047 636.00813 617.34726 621.69430 631.21502 638.99734 638.74542 637.95228 636.76809 638.94953 659.61507 683.36959 609.01083 542.26852 425.06468 383.64258 319.53535 242.42791 224.35575 222.92341 224.63879 202.30184 182.40175 166.69581 116.40628 44.96304 19.16689 1.51974 2.72421 0.09556 -0.21533 0.47003 1.19201 -3.88069 -14.55843 -36.00520 -41.55228 -37.99665 -16.10613 -0.45547 2.98797 1.50927 0.34005 0.14539 -0.04290 -0.01339 -0.01124 -0.05653 -0.06481 0.42180 0.97243 1.23547 -2.26563 -11.44128 -30.78366 -32.33246 -29.80397 -32.23836 -41.41554 -55.79483 -68.48372 -55.38873 -38.89737 -33.11617 -29.36709 -13.75775 -5.12270 -18.02782 -25.03888 -12.65489 0.26141 1.03371 0.99324 -0.88326 -9.97950 -29.89608 -34.25935 -10.80497 1.13202 2.88917 -11.42540 -23.47149 -21.53033 -7.09503 2.95495 3.23874 -21.21388 -30.25232 -59.02401 -98.75545 -126.82479 -166.65688 -192.08743 -220.21411 -229.52291 -278.77197 -312.39620 -367.62465 -400.43938 -432.16259 -439.03203 -460.83894 -471.26730 -488.16680 -513.62315 -530.24282 -555.26898 -590.09744 -588.18111 -606.48008 -624.27863 -634.51086 -640.02400 -653.93998 -684.82263 -710.24561 -740.27933 -777.70194 -813.38518 -841.53499 -863.84997 -906.09005 -985.58534 -1023.21642 -1049.90825 -1089.86504 -1132.39474 -1156.02889 -1172.87203 -1215.03905 -1243.04395 -1264.30734 -1339.88835 -1332.47763 -1327.20370 -1362.58890 -1396.17488 -1446.05725 -1445.43254 -1417.08331 -1383.80590 -1410.62393 -1460.07053 -1481.98100 -1481.87353 -1461.06685 -1456.93285 -1489.51600 -1529.66248 -1603.21861 -1604.65184 -1576.04191 -1533.38079 -1424.70957 -1501.56376 -1534.44995 -1598.36082 -1601.51328 -1615.27828 -1731.23854 -1802.86006 -1870.78887 -1954.70100 -1994.23098 -2023.09751 -2047.19722 -2074.02971 -2097.65954 -2143.60699 -2172.75204 -2214.03813 -2252.74429 -2274.03373 -2262.76468 -2293.91968 -2338.05405 -2328.94957 -2302.79998 -2308.48969 -2333.49625 -2351.30173 -2386.84100 -2411.33964 -2419.44893
38.37834 38.34233 38.40573 38.00523 40.16517 42.53582 50.82056 51.62464 58.22315 69.97274 82.24347 83.68404 80.49854 80.71788 79.98729 79.87593 78.48624 79.93580 89.79416 104.74514 122.11038 121.58466 120.34150 119.82154 118.66603 119.33740 132.86385 152.77607 158.91194 166.09620 175.09249 200.62079 218.71267 234.95478 240.20699 244.00624 261.09178 278.13420 284.10328 292.46218 306.35198 318.76539 321.56735 307.59177 291.69587 290.19581 299.55249 302.08719 288.93816 275.51489 276.15621 276.50749 278.80374 280.30480 278.36619 280.40918 287.36148 311.16607 340.74546 349.61427 349.24705 373.66823 426.53878 471.79143 542.04107 563.04509 578.55873 596.50456 604.90105 618.52682 627.81245 625.54828 629.49583 567.55967 547.54151 576.50002 628.47374 607.54508 610.00891 610.74142 624.80849 648.49692 730.97154 821.62846 895.32498 876.75303 854.08123 782.80834 737.19284 713.31533 692.15115 683.23968 678.56632 669.16157 658.06292 634.04063 644.11522 662.07548 653.33227 644.83545 642.84159 646.17047 649.03756 645.02629 652.85024 558.74266 464.90925 433.83888 487.39533 512.34908 321.66353 264.32004 278.45381 272.10018 210.44236 165.68392 145.48788 137.03654 167.25714 141.54691 65.52429 8.93051 1.00496 -1.77207 -0.53870 0.71702 -3.42652 -8.46657 -18.92791 -34.29039 -34.14226 -15.32202 -2.40179 0.70702 0.03549 -0.63608 0.30212 0.46988 0.26027 0.17929 0.56683 0.80714 -1.82666 -4.61046 -3.19134 -0.70921 -12.67422 -28.24305 -32.34127 -29.27183 -28.55534 -24.19266 -40.56979 -43.96620 -32.97824 -30.77184 -17.71808 -16.36422 -4.88218 -3.05192 -7.63646 -8.53488 -3.07220 -0.98708 0.34953 0.65595 -0.14198 -13.41473 -29.06512 -28.00331 -12.19007 1.75567 0.13473 -7.69644 -20.17142 -22.45722 -11.46202 -14.91802 -41.07919 -47.70254 -98.06430 -120.30064 -133.49494 -162.35177 -221.25143 -248.31908 -276.99762 -303.83748 -320.47012 -379.70696 -429.58567 -447.58630 -469.25915 -500.27610 -521.84410 -534.11526 -541.47710 -563.03031 -602.50531 -633.05354 -643.31700 -645.67194 -662.15518 -717.33707 -733.64110 -715.74951 -735.48141 -758.59307 -776.74187 -818.51802 -869.13039 -895.57839 -921.02781 -958.33596 -955.71944 -1035.86392 -1076.16417 -1098.22745 -1111.88873 -1154.68241 -1192.03217 -1230.98756 -1260.09249 -1268.69178 -1344.06481 -1387.65458 -1387.35409 -1367.58971 -1379.85104 -1406.65125 -1460.84696 -1476.77449 -1434.32603 -1402.16063 -1440.24160 -1498.89669 -1512.94788 -1512.05396 -1503.60856 -1517.84008 -1537.17687 -1581.41951 -1621.46394 -1647.46288 -1633.57956 -1623.65914 -1588.23223 -1568.53160 -1620.62329 -1637.68186 -1647.96561 -1688.43351 -1727.31121 -1805.38046 -1872.02708 -1949.85060 -2022.49779 -2061.05149 -2106.69528 -2143.63811 -2162.37814 -2189.22478 -2212.30534 -2250.80583 -2283.05857 -2306.06670 -2323.69324 -2320.86280 -2333.08736 -2327.75456 -2315.85161 -2324.76999 -2354.08381 -2379.34750 -2430.63595 -2451.71866 -2460.18154
39.69642 39.92417 39.86640 39.66808 40.15418 42.20400 40.45062 39.32213 45.54572 61.95083 74.34799 78.05903 75.34528 76.26987 79.89794 80.24920 79.01240 79.46323 93.63671 109.68029 121.19458 122.35972 120.94372 119.66524 118.89209 120.52629 137.17686 152.57384 159.57141 163.48985 175.29241 198.68582 210.46062 233.19515 233.40856 237.45005 252.20026 267.32707 266.63469 272.00074 285.75426 284.58725 297.20406 288.10684 281.61634 281.69357 288.19275 276.64488 261.03218 260.61799 258.39105 264.69478 274.30875 276.65140 276.52808 282.99472 299.37221 317.31961 331.33151 331.02894 334.62390 342.96953 388.68943 437.46057 488.20144 534.91878 543.39892 585.36671 603.68857 582.13934 556.59152 587.27057 592.84693 547.52438 526.87433 554.15387 604.68943 582.75013 576.37963 590.99104 620.23950 668.36017 739.18147 852.82339 931.78724 917.90457 889.66874 828.01885 797.22196 737.84734 711.53293 690.58011 686.08709 676.07520 664.25169 656.23069 666.44092 691.65723 681.47975 659.37820 673.79571 674.98616 654.06395 610.12512 546.96950 507.63450 477.13381 564.65994 623.70107 547.34893 451.07952 345.31528 364.93753 316.65520 208.07619 117.36914 85.28714 163.19761 305.21172 259.08556 98.75001 33.76722 2.60252 -1.77919 -0.75255 0.16114 0.16239 0.62697 -3.07066 -16.83785 -23.92875 -25.44155 -11.83254 -8.65677 -9.66612 -2.97883 -0.10371 2.08578 1.54715 1.84090 2.33860 2.95510 -5.96315 -7.29353 -13.31899 -6.78898 -6.03606 -7.28897 -10.47649 -10.66277 -7.97136 -5.33195 -14.66896 -12.01794 -7.79952 -4.00201 -3.40966 -1.62235 -1.47275 -0.08218 -0.27595 0.59245 -0.32176 0.20405 0.04119 0.62475 0.70881 -4.81859 -15.21665 -16.53318 -6.45831 0.40942 0.95948 -2.65858 -5.19853 -12.00317 -15.52064 -53.18222 -64.80559 -126.86601 -149.10887 -172.77212 -184.22562 -225.22485 -266.56718 -333.87144 -338.49406 -380.96689 -392.03953 -428.53799 -486.37507 -511.99976 -524.62455 -545.18810 -585.66668 -611.61243 -645.68869 -630.93377 -657.95480 -711.93970 -728.91477 -755.53991 -748.40679 -789.23130 -798.52629 -810.58187 -813.98665 -825.96625 -869.04972 -922.87194 -949.18457 -947.18689 -985.55071 -998.93391 -1066.34430 -1087.40979 -1109.87080 -1131.09792 -1154.98775 -1170.27300 -1214.54809 -1250.43724 -1290.70184 -1311.80858 -1377.62253 -1410.66579 -1414.95029 -1395.42710 -1389.22968 -1414.81972 -1444.46221 -1492.40681 -1484.57635 -1430.54685 -1477.11010 -1526.78644 -1563.35512 -1575.70022 -1572.19258 -1573.66051 -1594.70644 -1616.18133 -1641.88418 -1666.66046 -1676.05630 -1676.63939 -1653.09937 -1660.18103 -1699.98461 -1720.37931 -1718.68445 -1731.30941 -1767.51728 -1834.51695 -1882.30740 -1941.98314 -2011.31469 -2067.98507 -2114.94966 -2153.21053 -2201.42944 -2241.68798 -2251.49906 -2278.93896 -2309.38837 -2327.05950 -2341.00624 -2341.61483 -2331.90473 -2317.35775 -2308.71492 -2318.02647 -2348.43663 -2441.99008 -2473.32404 -2503.69103 -2475.73377
40.00000 40.00000 40.02756 39.99054 39.82357 39.21309 37.91725 37.43775 39.92940 49.90484 49.42740 55.05816 60.52764 70.69205 81.18867 80.51779 79.26528 79.32252 92.05061 111.23082 120.42116 123.15592 121.49394 120.02076 118.67652 120.85678 127.93602 154.42908 159.34791 162.72599 174.47500 199.68867 204.02728 206.99256 227.02601 236.64192 246.88910 249.41087 247.33609 246.51022 250.73182 254.76063 252.86988 256.04609 269.74775 275.16628 263.08057 251.89641 250.57835 243.22262 243.67173 255.11707 269.29816 278.32505 282.13486 292.82246 307.62406 317.99330 320.84006 318.32047 322.90470 334.06576 358.17071 422.13531 453.28500 495.73877 498.97648 529.77015 547.69700 514.79497 512.11606 518.18014 538.31508 476.99521 472.70286 515.57187 561.21921 545.98565 554.04070 575.61714 606.92772 653.47083 767.48007 914.39561 951.61707 941.34105 903.45001 878.41811 829.74381 759.37513 746.51128 708.78109 696.46780 684.71396 660.21626 650.35347 678.66421 708.11144 692.98725 681.40502 695.82901 690.38278 653.69453 591.67754 488.13252 447.57731 536.75305 623.77863 714.22792 667.42571 496.12286 438.32000 413.31079 311.41355 189.97029 91.15161 65.41572 164.43096 236.99138 231.67730 109.99777 32.75747 6.52074 -2.02158 -0.43936 -0.09331 0.16607 1.47792 1.54435 -6.71250 -12.60200 -24.18825 -25.66725 -32.98073 -29.70692 -13.31988 -0.83882 1.58204 0.68837 -4.92865 -0.18550 -4.48607 -25.99332 -32.23896 -31.92531 -20.16888 -9.70495 -5.16115 -2.92493 0.72555 0.65675 1.90645 1.46912 3.77047 1.92963 2.36712 0.90864 1.26024 0.78971 0.24457 0.61096 0.97623 0.79632 0.04480 -0.03075 0.17042 0.29276 -2.44779 -4.00729 -3.92533 -0.01334 1.53944 2.49518 0.26073 -9.85527 -28.19046 -44.38758 -109.07703 -149.67645 -186.41619 -239.53111 -265.26985 -280.12412 -322.43220 -371.11941 -392.70759 -418.14182 -457.47386 -489.69232 -514.38187 -551.06152 -565.68061 -574.01117 -622.87984 -659.05948 -689.27362 -719.40970 -730.66827 -748.87766 -772.43217 -787.54510 -829.17648 -835.23806 -860.37729 -869.54958 -882.01251 -883.44609 -906.70141 -950.12650 -1006.88933 -1020.19647 -1096.70761 -1097.27940 -1094.47186 -1149.56263 -1134.16711 -1129.70627 -1159.99835 -1185.86086 -1187.82350 -1227.62306 -1257.30404 -1302.65438 -1350.23091 -1388.74919 -1418.28532 -1422.84327 -1420.23102 -1426.01048 -1472.79487 -1498.94434 -1536.11266 -1538.99739 -1515.71303 -1539.49341 -1578.26017 -1606.97664 -1623.06430 -1627.92713 -1623.99129 -1637.17002 -1652.71708 -1668.58007 -1691.70595 -1712.04542 -1726.68417 -1715.91661 -1722.60389 -1744.18784 -1768.89105 -1795.14005 -1809.82887 -1852.58091 -1869.51903 -1933.28934 -1956.82102 -1997.91172 -2083.65601 -2109.05619 -2172.48561 -2225.76271 -2255.74353 -2274.53857 -2291.72480 -2315.59861 -2326.43978 -2371.03238 -2371.93208 -2342.91550 -2304.48654 -2279.09321 -2296.03800 -2351.57391 -2459.68224 -2507.77067 -2543.89100 -2551.60628
40.00000 40.00000 40.00000 40.00819 39.90754 39.88371 39.56110 39.37594 40.42589 40.75145 40.83263 42.88345 49.86146 70.91379 81.86487 81.79243 80.18186 80.11907 88.51155 107.80130 115.38563 118.41704 115.92589 119.51203 119.44748 123.37204 132.79860 152.82813 159.29577 164.78817 174.66461 194.54364 202.74634 209.48766 229.04055 244.30466 247.68621 241.73232 233.79400 230.90725 227.28385 223.09763 221.82176 231.10510 239.00510 266.78822 252.99958 237.52586 235.79708 236.99624 238.11297 245.47785 266.77429 287.09825 296.11702 306.84105 316.54039 320.97587 318.99494 317.59628 317.96419 324.34838 328.87608 342.22449 402.89151 443.10740 454.19321 478.59282 464.86899 471.54150 462.88075 462.70378 452.13120 441.34976 458.34195 496.03898 533.88976 530.70720 539.78585 567.72027 611.31982 653.59844 736.36744 878.30600 948.19003 941.78793 921.90277 914.58223 896.20410 815.11041 778.03883 723.29854 695.73333 682.79311 656.09918 646.94991 663.49349 702.64231 680.99484 663.26305 672.26244 657.21274 628.87640 579.87063 501.12838 537.60088 630.90939 680.39301 697.21438 628.63845 565.20635 462.70066 361.47884 230.26125 90.62004 36.75824 42.29944 115.88316 152.74302 129.42069 68.62664 21.96415 2.36773 -0.48556 -0.44866 -0.02708 0.13389 0.57195 0.69675 0.42637 -1.40166 -15.14930 -33.48423 -37.80558 -32.91620 -18.73638 -9.59584 -7.58731 -14.04880 -13.47737 -15.67382 -32.73359 -32.84363 -39.68811 -40.86294 -43.46914 -31.19166 -8.66351 1.69466 2.69366 1.60033 1.86934 1.63661 2.44193 0.71437 1.40163 0.68210 0.73911 1.14117 1.33164 1.26626 0.27521 0.16938 0.05457 -0.00406 0.00861 0.03765 0.22556 0.33175 2.63802 2.91977 5.44395 6.44802 -1.59904 -10.30642 -67.85137 -98.05690 -161.04671 -205.76472 -243.39869 -318.10718 -363.81928 -352.50345 -447.63906 -480.75912 -519.03399 -538.08786 -569.14317 -560.21348 -614.28822 -607.87814 -641.21888 -644.51734 -680.38301 -712.81302 -760.54619 -780.33588 -796.77827 -811.03125 -864.34783 -868.56799 -878.32581 -903.48276 -930.01449 -959.35923 -955.55821 -978.36068 -988.57378 -1023.40369 -1088.26743 -1150.24076 -1160.68277 -1172.73736 -1179.89567 -1193.75672 -1173.23868 -1161.26931 -1217.66020 -1230.84997 -1246.89271 -1280.45758 -1304.75627 -1347.26922 -1374.58312 -1397.13042 -1409.94312 -1412.71818 -1424.95646 -1446.96253 -1490.14012 -1517.22596 -1536.54487 -1538.74158 -1558.52023 -1570.18905 -1599.60408 -1614.23525 -1627.82432 -1642.06863 -1660.56761 -1673.35127 -1685.12727 -1697.27187 -1704.36276 -1728.20511 -1742.59509 -1751.24191 -1756.97542 -1794.61368 -1817.26025 -1832.76751 -1851.47649 -1899.63962 -1936.95532 -1980.08906 -2000.33006 -2025.94304 -2054.58758 -2126.72644 -2187.15862 -2234.74113 -2270.81638 -2285.48148 -2294.15673 -2312.00086 -2332.20542 -2374.01139 -2379.25353 -2360.72441 -2296.54302 -2277.27875 -2302.34422 -2369.97589 -2462.49601 -2513.07071 -2528.06340 -2519.63891
40.00000 40.00000 40.00000 40.00000 40.00000 40.00001 40.01416 40.05541 39.75294 39.19798 37.96443 37.20829 45.00926 66.05518 80.65512 83.37791 81.11202 80.57774 84.34492 92.24193 97.58408 93.11306 106.95371 116.56381 119.65841 123.88064 130.77087 156.10951 160.03903 162.18575 173.50054 196.76925 210.62991 225.27070 243.96484 263.15244 258.93184 238.00203 223.67866 210.88389 210.77333 212.09565 210.39615 216.15683 237.59019 247.45507 240.00352 239.75142 238.59061 238.16515 238.49164 253.33537 265.97107 290.21388 299.44078 319.70872 319.97610 320.50694 319.60151 318.77681 319.21107 318.88678 322.91621 334.49617 369.17679 398.86852 427.25023 426.64704 430.51064 416.05835 426.24385 417.53843 406.79986 428.21298 442.60296 481.25694 509.25734 516.53023 537.19088 564.54815 609.97528 653.35067 738.88714 870.99378 933.13282 937.24921 928.77246 926.78090 886.84763 841.41442 769.43074 717.65173 695.43218 680.03863 663.85909 650.65792 658.78354 666.26528 654.66253 629.58423 606.39285 593.58512 590.85002 595.01403 610.29075 597.23485 691.09551 683.39463 612.51241 532.66720 538.75082 471.18657 285.67249 68.77391 23.10086 19.94685 38.12948 53.98881 53.62205 28.59887 2.23494 0.69192 -0.09972 -0.00756 0.05612 0.00635 -0.00702 -0.05619 0.46630 1.38342 1.52628 -9.78795 -15.94373 -11.12972 -18.10686 -20.75826 -27.69811 -29.79623 -27.76533 -31.14575 -41.13544 -51.99388 -56.86174 -50.64859 -53.22715 -63.99981 -50.38793 -35.84707 0.43324 2.19390 0.86648 0.89048 1.21789 0.80699 0.01217 -0.03842 -0.14728 0.04453 2.02377 3.26121 2.73948 0.64563 -0.11694 -0.03277 0.01474 0.14104 0.42316 0.66613 1.45205 2.36116 3.51227 3.04061 3.18294 -13.72394 -56.71692 -112.93805 -165.99234 -225.59147 -257.40071 -335.64366 -421.73261 -459.15872 -475.37328 -490.95484 -543.67387 -578.61086 -612.91444 -635.15360 -654.18099 -672.93507 -687.52834 -711.87192 -734.81556 -783.39749 -826.86318 -853.21587 -879.66867 -882.12134 -915.36552 -917.06037 -922.97790 -940.33187 -947.76438 -993.31697 -1032.62707 -1046.01793 -1044.97985 -1054.37069 -1099.45416 -1135.07396 -1159.98106 -1171.17073 -1175.00122 -1187.72941 -1203.71453 -1204.72810 -1218.31023 -1245.89816 -1276.76964 -1305.14008 -1309.81515 -1342.85520 -1364.92455 -1386.30645 -1398.80475 -1403.16790 -1408.68260 -1425.68427 -1449.49806 -1467.39172 -1473.86322 -1481.39492 -1508.11477 -1556.07359 -1567.14437 -1599.59377 -1606.99159 -1616.72675 -1637.14324 -1665.50503 -1685.65444 -1700.32424 -1711.92687 -1715.85646 -1738.86423 -1761.10947 -1773.62486 -1799.53955 -1834.16576 -1850.63821 -1871.37657 -1909.52552 -1970.94846 -2015.87091 -2037.82454 -2037.79018 -2040.55742 -2049.51698 -2093.01444 -2179.71527 -2226.33134 -2250.02407 -2262.42618 -2263.53857 -2271.07985 -2316.26320 -2364.83021 -2399.74227 -2377.41565 -2322.58661 -2295.45977 -2317.16615 -2405.79835 -2466.41407 -2478.47649 -2460.37983 -2440.73783
40.00000 40.00000 40.00000 40.00000 40.00000 40.00000 40.01130 40.01160 39.86987 39.71976 39.37440 38.46160 44.38840 66.65197 73.05995 82.90259 80.29262 79.19818 80.19295 83.18170 85.90540 83.71791 89.82084 104.57926 117.49032 118.35621 128.79703 146.64159 154.64881 154.14311 170.69719 193.39640 210.13937 237.11624 254.72413 271.54037 260.36884 234.15447 217.76292 199.79719 198.33430 197.38623 199.25827 204.00553 216.38192 229.64106 236.47501 240.06853 239.65066 239.03112 239.68433 252.30706 267.43813 287.75822 300.90414 308.76948 318.76311 319.93012 320.50216 320.08425 319.92692 317.86490 319.34820 329.39019 352.82666 390.15666 407.77637 404.22627 398.47373 402.22281 410.84282 415.87968 411.97635 427.09657 442.43546 460.52895 486.96533 505.67075 526.41636 565.36479 610.15297 649.59772 742.70566 828.33053 901.67076 916.30055 920.37825 916.64601 900.14663 821.38235 766.24168 710.60634 678.35238 674.23816 664.29660 648.15703 638.71378 641.23796 614.73476 604.35934 588.23047 583.94006 599.71145 645.99536 689.22564 745.07568 736.04676 653.39340 556.15018 414.30791 391.26487 286.29034 166.86502 16.89229 -3.33629 -1.30546 20.42404 21.61330 8.39037 -2.34927 -3.03227 -1.78768 -0.33321 -0.05420 0.04931 0.00712 -0.00011 -0.02764 -0.00104 0.13024 -0.26863 -0.58284 -2.94963 -0.21698 -0.04215 -21.74933 -41.88334 -53.00426 -49.06812 -36.97157 -47.03903 -66.82130 -86.95950 -71.88716 -70.70575 -78.97367 -53.87360 -33.51221 0.58708 3.09914 0.54210 0.71356 1.30119 0.35550 0.00621 -0.02680 -0.04498 0.03822 -3.45231 -5.10676 0.43879 -0.52727 0.71483 0.26610 0.59679 2.04974 3.10768 2.90668 6.44919 4.89556 -5.94542 -20.57127 -34.58019 -56.77940 -118.30745 -191.15037 -271.48553 -317.84915 -387.60696 -448.37794 -522.95795 -546.09119 -579.29211 -618.15529 -585.47075 -628.09902 -661.14858 -702.59052 -743.90429 -767.94399 -788.46015 -823.98634 -826.08358 -865.91985 -892.41550 -910.86454 -932.37254 -965.24673 -988.07136 -992.20712 -1000.59292 -1021.22299 -1058.92540 -1062.32243 -1106.89385 -1103.31463 -1114.59947 -1104.33237 -1121.74591 -1133.69574 -1158.80189 -1161.93610 -1165.22661 -1180.18356 -1206.75545 -1221.44758 -1242.94291 -1277.80815 -1293.21709 -1316.89779 -1327.14786 -1344.65599 -1365.00352 -1389.90168 -1401.10372 -1402.26846 -1406.84745 -1427.53437 -1437.89928 -1423.78836 -1424.00757 -1424.69560 -1445.26924 -1503.57061 -1560.85988 -1584.94957 -1588.74705 -1604.90402 -1638.78091 -1683.86126 -1701.17747 -1699.39728 -1695.96248 -1709.35908 -1742.52143 -1762.95251 -1797.57504 -1842.68712 -1867.07485 -1873.61406 -1883.09796 -1909.16746 -1967.49108 -2044.30899 -2044.38984 -2055.74196 -2027.11102 -2021.71507 -2064.15039 -2144.84271 -2184.85084 -2196.91893 -2150.94746 -2196.38060 -2221.09715 -2273.53963 -2370.77203 -2398.81861 -2381.01932 -2331.92652 -2327.44092 -2376.42566 -2415.24003 -2457.27720 -2457.77221 -2421.88624 -2380.09928
40.00000 40.00000 40.00000 40.00000 40.00000 40.00000 40.00090 40.00169 40.00007 39.98620 39.72437 39.75996 43.37102 55.82454 64.25465 61.58989 64.91497 75.23483 80.11979 79.77559 77.89727 77.69167 83.76558 92.49337 106.44206 114.94012 132.29593 135.45865 140.62012 146.96929 157.09731 191.47127 218.40468 239.21632 254.61762 257.85267 244.20068 220.39222 208.06234 199.14807 197.67383 197.71940 198.05793 200.10910 206.14439 218.59852 223.59704 241.14290 240.91805 239.70687 239.14119 250.12226 270.46475 282.57681 295.41801 298.89643 311.48039 320.49310 321.01189 319.88905 319.70567 318.44026 320.29974 328.46766 352.96085 380.29335 396.64071 402.42890 400.90061 397.69952 403.69200 420.66471 440.17091 451.80780 454.01360 468.32512 482.46573 495.03896 529.58483 565.33226 604.89781 638.79275 686.81654 771.76896 868.47257 891.46222 900.93593 901.16158 868.74865 810.67740 727.09664 704.23557 668.56446 666.00986 651.42236 644.64302 640.53385 633.20900 613.79033 601.69650 605.96507 623.68567 659.51554 692.66971 763.47270 772.35607 736.49428 561.72483 442.63510 300.74107 224.39285 150.13832 48.46960 1.95110 -2.30255 -1.58159 3.84374 5.68467 0.92253 -2.48948 -1.22749 -0.32328 -0.00076 0.02269 0.00186 0.00117 -0.00021 -0.00171 -0.02224 -0.16950 0.07267 1.60991 2.58988 8.30456 5.68346 -29.61033 -64.23547 -74.94793 -56.38498 -30.64674 -14.27197 -54.49615 -90.80281 -98.11804 -80.18260 -77.26441 -57.08545 -27.44484 3.15157 2.02666 0.32054 -3.19134 -3.80619 -3.21788 -1.43385 0.38054 1.23044 -1.47331 -11.82240 -43.35113 -34.45031 -8.94373 -0.01971 1.34784 2.38309 4.89483 4.74192 7.82267 9.26471 5.87000 -45.81787 -57.44445 -88.87454 -180.72303 -230.62883 -283.01075 -390.24529 -442.83558 -486.07113 -551.78719 -616.87133 -692.87975 -687.03510 -678.74428 -727.77382 -746.82099 -770.09829 -805.96103 -854.77710 -884.16166 -930.61254 -919.99445 -958.25864 -985.67334 -1022.51095 -1034.72553 -1060.27023 -1066.93233 -1059.65527 -1066.16875 -1066.81440 -1079.20140 -1109.73412 -1138.25739 -1158.20666 -1151.93919 -1135.30935 -1133.55828 -1131.62160 -1150.26317 -1156.01954 -1159.57973 -1160.96263 -1199.88470 -1220.78456 -1236.86926 -1248.92506 -1285.19295 -1306.34245 -1318.85279 -1326.49221 -1349.01366 -1370.95253 -1381.57997 -1394.00329 -1398.19742 -1405.86182 -1419.29380 -1445.72262 -1424.34429 -1414.71895 -1415.04316 -1430.57953 -1471.78506 -1502.18230 -1536.64633 -1563.91365 -1616.02860 -1648.89668 -1689.04693 -1702.33320 -1668.32825 -1665.44126 -1699.45091 -1743.95970 -1771.97408 -1819.26994 -1838.22666 -1863.20762 -1870.64772 -1873.24629 -1894.17151 -1921.78379 -1945.22059 -1959.92527 -1962.65227 -1974.66428 -1982.23673 -1981.52162 -2045.77604 -2074.30250 -2059.73904 -2080.88399 -2109.92149 -2170.24479 -2224.50544 -2341.65529 -2355.07103 -2327.53105 -2330.85603 -2331.67316 -2364.43069 -2408.16410 -2432.46940 -2406.01524 -2354.52466 -2341.42017
40.00000 40.00000 40.00000 40.00000 40.00000 40.00000 40.00000 40.00000 40.00000 39.99925 39.89731 39.66078 40.36152 44.39155 46.68670 46.93207 48.82137 64.07830 77.49967 81.24552 79.43153 79.59270 79.56659 86.64890 95.91205 111.21631 119.45895 123.24033 119.97956 123.64966 141.70539 187.74800 218.28313 234.60210 243.73401 242.05720 225.25761 206.45153 199.85816 199.75392 198.99897 199.13965 199.45080 198.91582 200.18880 206.80146 217.80780 237.95135 241.41820 239.91404 239.78695 245.32677 262.40764 267.81053 277.60112 288.49164 309.20578 320.46849 320.11519 319.15727 319.40339 319.11593 320.08575 326.70451 341.67428 371.79513 406.55818 417.49023 403.98116 393.76933 397.93766 435.26529 466.92789 486.09244 493.01227 480.70602 482.02293 497.75533 523.07031 564.06694 607.57671 625.30201 663.74273 755.89726 821.24163 862.87579 864.76486 849.73655 830.25802 784.71614 717.85885 687.79006 667.06119 648.62634 639.65797 638.93949 638.20689 635.83552 624.24138 619.37190 638.59170 678.83542 716.21136 717.28060 761.75974 761.33981 674.69594 502.18690 360.25841 232.63946 140.35924 47.59069 19.42240 -3.55906 -4.54202 -0.94322 -2.30417 -3.00926 -2.60360 -1.53938 -0.64891 0.10183 0.04587 0.00650 0.00000 0.00000 0.00000 -0.00006 0.02928 -0.08285 0.09557 0.16534 1.89201 3.90319 -2.89097 -35.18819 -73.17980 -81.18081 -62.40856 -38.99187 -20.57050 -78.25325 -100.64590 -116.22522 -92.78955 -70.96626 -46.63825 -7.59544 -0.80461 2.61396 -7.09743 -16.08780 -17.48251 -8.59068 -0.45991 0.95707 2.30611 1.01381 -33.63599 -79.58837 -67.49818 -16.73937 3.90462 1.51724 -0.97742 -1.27392 -11.45631 -15.46919 -26.63988 -19.97074 -98.17462 -158.55302 -259.73863 -320.84458 -379.82212 -513.65832 -585.15369 -618.51325 -692.40303 -699.94367 -738.24508 -804.64888 -840.02762 -825.20107 -882.96096 -893.04178 -927.38330 -947.08415 -961.20623 -964.15829 -1000.04013 -1039.79943 -1051.90517 -1069.24267 -1078.48386 -1104.28207 -1110.76740 -1117.50808 -1101.94887 -1095.72029 -1097.39235 -1112.47119 -1142.98657 -1155.82579 -1166.00989 -1161.16005 -1157.50633 -1154.12192 -1151.19832 -1154.83173 -1157.39936 -1157.75823 -1166.46756 -1192.85263 -1212.56219 -1236.02513 -1239.06734 -1267.91982 -1307.05927 -1318.86941 -1326.34461 -1348.16166 -1378.69070 -1369.87889 -1370.12491 -1364.35724 -1395.69420 -1422.74046 -1469.30303 -1451.63744 -1426.19774 -1426.34675 -1431.96170 -1453.05633 -1471.38371 -1488.88783 -1562.74416 -1590.06061 -1643.54435 -1659.57025 -1678.08716 -1658.80400 -1656.50233 -1688.71681 -1728.82889 -1748.01109 -1780.20594 -1800.75701 -1815.11480 -1831.76399 -1835.44745 -1833.94906 -1852.62892 -1866.33336 -1858.92026 -1907.23097 -1934.56167 -1924.54690 -1943.15711 -1977.22125 -1970.51650 -1956.11543 -2013.21551 -2061.82760 -2140.92198 -2213.51258 -2244.70340 -2276.88893 -2261.00165 -2284.59216 -2296.13879 -2323.96908 -2367.26857 -2355.46221 -2362.63487 -2325.21486 -2299.15984
40.00000 40.00000 40.00000 40.00000 40.00000 40.00000 40.00000 40.00000 40.00000 40.00061 40.02708 40.05601 39.72293 39.22944 38.52958 37.78267 41.60577 58.70526 68.44784 78.09670 81.19660 79.72949 79.72553 81.09509 85.80516 101.14374 113.30896 117.78134 110.40074 105.82237 125.20183 162.23800 212.01395 218.13318 227.16892 217.52566 211.28217 201.58937 198.04901 199.88103 200.10963 200.03468 200.11063 199.31721 198.74766 205.45402 219.96746 238.81645 241.34367 240.00340 240.35239 240.50369 251.40412 254.58378 269.10861 286.85178 311.23063 321.23989 319.64690 319.63726 320.25264 319.87666 319.31157 319.74167 329.88566 365.62561 420.82790 426.37662 404.81156 397.63412 419.17898 452.83389 513.65753 522.94161 509.57110 502.43771 487.50505 503.08931 520.32071 576.33277 603.86920 622.80947 670.13308 712.39787 788.38867 806.66050 816.97625 825.47778 787.12703 732.93761 700.18305 684.67685 669.74933 644.59754 631.07798 623.32021 630.00668 632.47705 628.01607 635.37422 668.71513 729.43471 764.25038 759.06185 724.54902 722.04710 500.97988 418.28723 265.22274 190.78916 117.44307 56.30538 36.83493 -1.00193 -3.53006 -0.78581 -0.23283 -0.53755 -0.33205 -0.16260 -0.00032 0.01812 0.00571 0.00000 0.00000 0.00000 0.00000 0.00000 0.02550 0.32619 -0.40067 -5.75205 -11.28342 -12.61083 -23.07234 -47.35768 -67.37643 -84.71045 -78.98864 -63.48450 -53.63378 -80.93785 -114.12983 -123.98740 -107.74774 -73.87377 -16.13028 -0.49814 1.27092 1.42100 -7.59335 -21.57390 -24.84648 -9.11650 0.02993 1.43650 2.51908 -0.31841 -22.93975 -48.60143 -61.90023 -29.94758 2.60385 2.28224 -3.09577 -46.29502 -71.31381 -86.32772 -88.61439 -65.95093 -170.82731 -403.25523 -474.86982 -550.37167 -607.61930 -695.56606 -732.50331 -785.35255 -786.38269 -802.05332 -860.36210 -906.81348 -922.90075 -929.37226 -955.98255 -956.16200 -982.34498 -998.43854 -1015.05901 -1050.01155 -1085.78073 -1098.06025 -1116.36805 -1134.87562 -1118.03120 -1118.55493 -1122.81760 -1122.75699 -1116.88212 -1114.56870 -1114.03886 -1124.37713 -1145.96416 -1158.50143 -1162.56601 -1155.55553 -1155.75423 -1152.80698 -1150.88302 -1157.27631 -1156.56391 -1154.06222 -1145.52498 -1174.65321 -1190.82945 -1205.68890 -1218.05959 -1256.47540 -1288.21890 -1302.54781 -1332.03750 -1359.95229 -1393.55865 -1366.03653 -1335.88325 -1338.72042 -1367.60000 -1411.16320 -1470.82200 -1457.52208 -1437.62285 -1439.32236 -1446.75823 -1466.55480 -1482.33985 -1517.92110 -1545.96878 -1566.86849 -1613.17791 -1626.05230 -1633.82788 -1641.17323 -1661.63774 -1683.78385 -1724.45554 -1723.78000 -1734.47217 -1749.01451 -1776.73117 -1763.34956 -1778.54405 -1778.49688 -1749.70939 -1748.36998 -1778.97835 -1842.79550 -1875.73451 -1888.86737 -1893.38007 -1884.15353 -1907.24350 -1926.41016 -1967.92364 -2012.48220 -2096.33693 -2151.13285 -2173.76653 -2160.61315 -2181.89745 -2205.35980 -2248.54572 -2234.19865 -2275.29063 -2286.92468 -2301.34898 -2259.47720 -2254.41908
40.00000 40.00000 40.00000 40.00000 40.00000 40.00000 40.00000 40.00000 40.00000 40.00017 40.01222 40.04750 39.91126 39.42257 38.54650 38.26404 40.21553 48.72541 59.47828 67.98476 80.68524 79.39806 79.75455 79.53910 79.08169 85.21751 93.31541 109.54431 106.41350 94.52066 107.79328 144.50726 178.61084 199.79243 203.53319 203.30285 203.49475 199.48439 199.82410 200.45115 200.37248 200.23681 200.32942 199.34600 198.87226 208.07433 224.61179 240.47421 241.57938 240.12443 240.07577 239.26155 240.00785 244.63531 264.38969 285.48362 304.48877 316.50196 324.62295 326.58347 324.52443 321.22773 320.32179 317.07489 323.29603 337.77191 384.11475 405.89532 409.62502 412.99794 417.89300 468.21458 520.78731 542.84750 527.27422 510.56002 497.88809 518.64220 535.89193 576.72434 601.24762 631.27356 656.20263 688.11927 716.00751 766.69371 782.02468 786.78811 760.95031 721.51199 688.52139 678.17608 667.19259 647.80858 625.40976 612.89036 616.00880 627.39304 640.21409 650.01591 690.59443 766.12070 785.42389 766.81115 729.92533 601.80417 461.73502 329.50510 204.95794 168.80912 136.47800 118.99938 60.62340 17.81839 2.31474 -0.90917 -0.58532 -0.25507 -0.00021 -0.00011 0.00000 -0.00023 0.00000 0.00000 0.00000 0.00000 0.00000 0.00000 0.23614 0.74876 0.45081 -8.95692 -26.44749 -30.48529 -33.57067 -53.63010 -76.23297 -82.88455 -80.75705 -72.93037 -85.45310 -93.21343 -105.24480 -108.67396 -85.96926 -57.34296 -4.66786 3.48332 0.60667 1.17469 -4.40277 -18.39839 -22.79576 -7.32847 0.33237 1.23555 1.05234 1.50209 -9.69433 -21.81610 -29.65347 -15.33807 1.49084 -5.02479 -23.90583 -81.12606 -114.54058 -200.59138 -207.21696 -220.48333 -316.12572 -499.04113 -604.08385 -723.44858 -746.04309 -788.50742 -835.62456 -849.03721 -843.82089 -849.28637 -885.40850 -934.26123 -950.03490 -952.71164 -976.45439 -997.27783 -1011.23813 -1038.59475 -1070.01508 -1089.91274 -1107.07871 -1119.55679 -1138.00895 -1146.44830 -1134.75490 -1124.01262 -1124.34177 -1127.05917 -1131.11351 -1135.93924 -1136.18646 -1144.74254 -1147.51579 -1144.11552 -1145.09493 -1143.94752 -1143.19931 -1142.23173 -1138.59199 -1142.72504 -1150.70008 -1147.43614 -1137.14491 -1146.78024 -1156.45920 -1179.68434 -1205.02060 -1226.08782 -1272.21304 -1294.54439 -1316.41413 -1344.93265 -1356.61516 -1346.43214 -1327.65590 -1319.02885 -1340.92059 -1380.57103 -1425.92779 -1433.57436 -1423.30867 -1434.25768 -1447.37741 -1469.05963 -1488.84012 -1519.39840 -1557.30243 -1559.53617 -1567.39929 -1583.83848 -1600.22041 -1616.25195 -1640.49879 -1683.17975 -1708.96038 -1711.40640 -1706.19458 -1699.21191 -1695.96457 -1692.23031 -1678.50886 -1659.01081 -1668.63432 -1691.70503 -1751.94268 -1805.09805 -1845.27524 -1863.17583 -1866.84935 -1860.75312 -1858.21546 -1895.27458 -1940.38579 -2011.10995 -2064.14988 -2116.99610 -2081.94570 -2121.77871 -2106.70928 -2137.71238 -2134.44723 -2150.10486 -2201.51193 -2206.03258 -2221.51492 -2230.28728 -2239.66818
40.00000 40.00000 40.00000 40.00000 40.00000 40.00000 40.00000 40.00000 40.00000 40.00002 40.00163 40.01049 39.97717 39.85021 39.97957 39.86063 39.23584 38.44571 45.83669 59.07447 71.95691 77.02337 80.09425 80.12077 79.15402 78.86432 86.74251 100.87950 102.44849 95.22718 103.35845 134.06356 157.95902 169.71627 177.22654 183.91428 187.98830 198.92352 202.08623 202.05595 201.59004 201.59431 200.86080 199.16514 198.68649 203.86231 223.88764 235.58403 241.46209 240.42899 239.96780 238.14497 235.56616 241.21092 261.56366 279.20969 291.71489 307.20493 327.10795 335.96961 328.54192 323.18015 320.45451 319.53041 319.35010 326.07264 346.21149 380.23689 420.62531 429.89447 445.30534 480.32930 542.94046 543.95077 528.16147 519.80354 517.22558 537.04401 557.72701 581.54865 594.37979 618.34426 638.30126 659.23273 697.10818 720.32218 754.41237 751.29477 733.67419 703.14191 680.18485 676.87361 674.97678 645.15852 635.85816 611.96508 622.92628 640.14102 654.43034 675.05348 714.15214 767.17842 787.92166 790.96112 772.33054 729.88914 526.65035 335.13588 189.82525 175.76029 181.47644 192.10512 116.81502 52.72395 4.13658 0.48727 -0.95371 -0.03004 0.00000 0.00000 0.00000 0.00000 0.00000 0.00000 0.00000 0.00000 0.00000 0.00000 0.26455 1.15432 -0.20892 -15.64729 -41.55911 -53.52341 -56.94227 -67.62166 -87.52421 -91.61057 -83.81833 -90.00708 -103.78546 -98.24438 -81.12088 -61.25363 -43.93054 -13.92279 -3.96802 2.64129 0.30547 0.33881 -2.25722 -1.80415 -7.57244 -6.00845 0.01366 -0.35966 -0.58121 0.26280 -0.46612 -5.08767 2.60199 1.35409 7.83880 10.98274 -34.89698 -156.34737 -224.16417 -273.47157 -315.08018 -362.42192 -430.12559 -617.61455 -748.52763 -763.12200 -811.60874 -846.54105 -854.99217 -851.35023 -853.94070 -868.35503 -912.47987 -949.11375 -969.06957 -967.59642 -986.17637 -1007.24475 -1026.09864 -1057.32455 -1075.17558 -1114.75613 -1123.90135 -1127.52076 -1138.78121 -1142.68555 -1132.71981 -1124.02118 -1134.43697 -1141.12601 -1150.91184 -1150.06082 -1151.45639 -1150.68797 -1139.90389 -1127.56329 -1120.73502 -1122.37961 -1123.15730 -1119.41256 -1117.88663 -1131.54362 -1152.31319 -1156.95733 -1152.11861 -1146.91264 -1154.87504 -1174.48243 -1193.80757 -1222.96984 -1255.74918 -1287.93764 -1308.58432 -1330.96305 -1320.34031 -1312.28703 -1314.19443 -1307.24692 -1288.37793 -1326.50202 -1370.71248 -1401.51398 -1409.15602 -1394.22402 -1396.56222 -1429.96314 -1464.80177 -1517.62712 -1526.43798 -1531.96732 -1542.43338 -1564.07807 -1576.81333 -1598.85321 -1621.28035 -1651.35363 -1682.34298 -1698.39668 -1689.11909 -1666.32815 -1642.32828 -1634.21491 -1621.22747 -1613.60413 -1600.12357 -1626.53330 -1709.86397 -1749.53348 -1792.03432 -1827.28715 -1843.89452 -1866.45231 -1881.66755 -1910.78767 -1937.74672 -1990.57545 -2036.78153 -2061.83429 -2045.60058 -2018.28519 -2003.55016 -2033.04790 -2056.65814 -2064.62894 -2061.39417 -2127.21915 -2166.38336 -2203.46415 -2226.13217
39.99997 40.00000 40.00000 40.00000 40.00000 40.00000 40.00000 40.00000 40.00000 40.00000 40.00000 40.00097 39.99814 40.00129 40.02583 40.03309 39.32175 38.36976 41.75425 47.28765 56.99669 67.63344 78.80788 80.75848 79.91659 78.65574 82.62133 85.82483 94.06883 102.65470 116.39405 128.64270 129.97776 129.42349 142.20081 165.32151 182.42396 193.40395 199.32893 200.01294 199.96807 198.70726 200.71359 199.27910 198.87442 203.37061 224.56283 239.63286 241.82367 240.54767 239.82921 239.70110 239.42285 246.50537 266.02014 277.73175 282.49469 295.26153 330.42360 338.13125 327.13270 310.88260 308.95117 315.22825 317.27892 315.42816 318.57933 363.82238 412.28336 424.71605 445.76483 476.81378 526.66201 527.46712 523.44483 530.92944 542.76705 577.19827 595.91882 595.92678 587.98438 600.60522 610.24355 649.16988 687.84351 708.74771 732.57130 735.53173 730.40085 698.81417 679.05351 677.92110 670.34299 647.93582 637.27937 629.47854 642.38088 654.98220 671.65342 698.06830 728.33144 752.31794 782.39863 794.37506 787.53540 764.10748 528.20824 390.18565 296.66606 282.76616 243.57310 207.89331 157.70992 54.61423 23.96662 1.41400 -1.98838 -0.80336 0.00000 0.00000 0.00000 0.00000 0.00000 0.00000 0.00000 0.00000 -0.00008 -0.00847 0.74170 1.80436 1.81631 -17.00325 -50.91187 -69.96449 -74.24292 -89.83208 -102.73059 -98.49475 -94.01530 -98.86508 -118.64484 -100.95378 -43.74648 -21.78260 -1.37825 1.82980 0.40478 0.44395 0.07325 0.47877 1.40219 2.64181 0.40812 -11.22949 -18.59822 -8.53632 -0.15220 0.71032 1.26057 3.17614 4.40526 3.11218 11.74586 13.63364 -41.17700 -169.87243 -329.41692 -367.52576 -464.91499 -561.24402 -614.68973 -747.67327 -768.29136 -800.54336 -828.92253 -883.48853 -871.01281 -870.71252 -878.15137 -899.29226 -938.31730 -985.60427 -1010.21586 -1026.90767 -1029.76527 -1048.26458 -1054.87075 -1062.74670 -1088.07580 -1119.27218 -1124.80287 -1123.26811 -1126.83695 -1127.20738 -1121.07850 -1123.64836 -1132.96671 -1144.90101 -1152.12683 -1148.02370 -1142.73823 -1128.06800 -1106.85012 -1106.89487 -1091.13806 -1097.65910 -1100.35309 -1093.10157 -1101.34881 -1122.48808 -1164.88139 -1186.33351 -1172.55483 -1154.37798 -1159.05965 -1170.15196 -1188.43754 -1200.53782 -1226.80896 -1252.89232 -1297.06699 -1296.10434 -1279.26747 -1264.91525 -1292.52816 -1287.35980 -1261.09503 -1271.91147 -1320.61255 -1326.77924 -1319.51727 -1335.35097 -1324.47101 -1347.81742 -1394.12522 -1446.07103 -1485.43447 -1503.12196 -1516.38535 -1532.73994 -1547.98368 -1556.76912 -1585.59964 -1626.75939 -1645.57407 -1654.85100 -1633.08439 -1581.28725 -1571.91856 -1576.18210 -1591.52737 -1577.66076 -1571.54837 -1591.65358 -1623.09003 -1687.81452 -1723.48656 -1765.46646 -1809.03261 -1862.02778 -1909.75965 -1919.51061 -1942.97516 -1961.80003 -1996.04076 -2006.78966 -1978.81846 -1966.34439 -1955.64688 -1968.51702 -1991.08675 -1983.96029 -2009.50794 -2022.32541 -2094.96686 -2170.35116 -2235.80457
39.99820 39.99847 40.00000 40.00000 40.00000 40.00000 40.00000 40.00000 40.00000 40.00000 40.00000 40.00000 40.00001 40.00003 40.00466 40.01292 39.99326 39.83929 39.49035 39.11615 52.81439 62.29829 79.70390 81.31724 80.49445 80.02515 78.68302 80.66390 91.85990 109.24112 118.87249 120.77207 116.78975 119.16642 131.42949 153.74745 169.86090 180.75653 188.36314 188.10803 185.55972 185.07047 193.62204 196.86182 198.85049 203.16365 220.83880 237.35023 242.10187 240.09015 239.25137 242.05604 251.12975 267.88046 273.07535 278.87963 278.87813 296.11813 324.41737 330.36176 311.41433 295.82748 294.84529 301.91681 311.31961 316.81384 320.99006 334.97335 379.25970 402.14142 437.04667 460.69317 494.35026 503.94500 520.07705 542.39934 582.85861 610.89957 612.71533 592.09952 563.91208 577.87244 607.92024 646.96460 676.62708 702.52914 705.26711 716.69801 713.89712 695.03285 683.17713 684.72725 681.82824 657.00849 651.25627 664.83433 669.84759 673.58372 683.68346 723.70336 745.71832 767.99698 770.60811 772.94249 724.48146 641.88610 499.23184 446.45309 421.87547 398.17984 360.73188 266.08950 134.77743 80.64461 20.41508 6.10823 -3.03404 -1.17475 0.00000 0.00000 0.00000 0.00000 0.00000 0.00000 0.00000 0.00000 -0.00169 -0.01950 0.50600 1.80861 -0.23886 -12.46617 -50.89115 -72.38121 -79.17787 -98.57910 -118.31639 -123.95168 -108.11822 -103.87966 -105.65164 -86.92445 -43.72840 -18.61918 0.96892 4.27403 1.15395 0.09964 0.18909 0.14450 0.96364 2.74492 -1.84676 -16.59708 -28.02875 -20.09158 -4.06361 2.63759 1.90347 -0.06977 -2.86619 -5.33470 -4.29691 -21.75212 -132.27118 -253.31189 -391.44921 -492.93158 -653.55087 -663.92577 -737.57392 -789.37212 -813.04261 -838.34982 -874.55517 -935.70576 -958.83637 -942.91592 -926.49515 -949.14610 -972.15991 -1006.24227 -1047.00901 -1065.75742 -1075.06312 -1075.47954 -1085.29745 -1089.50657 -1103.80449 -1120.60494 -1123.94027 -1122.81104 -1122.59771 -1122.08186 -1122.51257 -1123.69608 -1123.17724 -1123.24919 -1134.23486 -1111.94261 -1086.74145 -1070.05951 -1053.15610 -1072.48560 -1065.18016 -1058.03721 -1064.84159 -1081.82767 -1068.58583 -1084.75753 -1130.30436 -1165.47618 -1134.52744 -1090.45870 -1118.99961 -1133.03898 -1132.62751 -1145.43439 -1176.98760 -1206.56281 -1239.25017 -1245.11030 -1230.89026 -1241.80336 -1261.49510 -1245.29411 -1226.12832 -1227.71847 -1265.13875 -1302.26876 -1289.13671 -1255.99326 -1228.30887 -1262.82808 -1317.54784 -1362.97086 -1404.63711 -1449.46962 -1438.53118 -1440.89700 -1438.62272 -1489.10131 -1521.87997 -1563.03332 -1588.89120 -1582.36057 -1550.72659 -1535.67362 -1498.55396 -1532.00575 -1552.80239 -1553.90785 -1553.34643 -1566.12218 -1599.95746 -1644.88850 -1667.00670 -1711.45848 -1752.29452 -1832.09412 -1902.40521 -1914.62822 -1927.40610 -1926.41009 -1915.22912 -1917.82022 -1941.74568 -1923.68336 -1922.78961 -1925.30985 -1930.23540 -1941.99812 -1958.66323 -1979.59378 -2053.43609 -2143.93049 -2233.88669
39.96180 39.99699 40.00000 39.99999 40.00000 40.00000 40.00000 40.00000 40.00000 40.00000 40.00000 40.00000 40.00000 40.00001 40.00000 40.00287 40.01376 39.93780 38.68718 38.00851 48.09272 62.92546 79.28979 81.39609 80.16442 80.09591 78.86798 80.71928 89.21398 110.61244 120.38896 119.65766 116.93654 120.60720 128.92480 152.99953 162.10162 171.35887 171.76600 173.51468 168.05844 165.46993 184.22750 194.06598 199.95273 205.09164 219.85104 236.95070 240.75624 240.10043 238.87199 245.14786 254.26196 275.46886 278.09923 279.16379 278.83793 289.76206 307.73665 311.33594 293.52862 281.68626 284.82388 297.40792 309.08300 320.85834 324.27821 335.73862 355.37003 379.36216 419.21247 446.77284 465.52834 481.00662 506.09791 545.30736 576.10453 582.24080 590.09977 561.27111 549.30378 568.66840 605.26798 633.51701 658.42349 673.23333 682.17472 678.94543 672.59921 675.95264 681.68336 695.09424 700.30403 667.45329 675.55358 696.92316 706.84147 697.36063 693.14294 748.45959 783.86536 789.73332 782.82951 768.96513 660.37007 552.08581 463.39508 534.33046 541.82160 552.15494 404.94313 270.94104 155.51854 106.20672 34.28067 11.37601 -3.23117 -0.97893 -0.12589 0.00000 0.00000 0.00000 0.00000 0.00000 0.00000 -0.00025 -0.00626 -0.06248 0.02720 1.67714 2.57341 -9.37655 -29.03758 -54.02325 -75.05503 -99.78227 -142.45199 -141.69724 -124.64308 -106.23914 -86.75551 -66.36628 -45.59261 -21.43924 -14.58975 -2.29461 -0.45112 1.16430 2.17813 -2.04550 -4.34479 -4.32207 -16.59179 -30.31585 -32.08529 -23.06051 -3.25983 4.89636 1.95541 -5.63789 -17.41391 -22.82896 -42.01919 -78.51481 -184.45861 -363.77874 -499.55990 -696.39474 -727.81102 -769.98450 -806.66086 -835.19649 -832.31827 -870.33839 -900.35749 -987.24855 -994.06440 -989.71329 -982.00466 -991.35311 -1012.47488 -1036.82265 -1065.00718 -1081.95182 -1089.62301 -1103.52257 -1103.80761 -1106.90295 -1111.04316 -1120.50316 -1123.54409 -1118.78647 -1118.16513 -1118.75675 -1120.76040 -1119.36646 -1106.79706 -1089.84413 -1083.07799 -1058.95387 -1042.13908 -969.50049 -967.96312 -961.64727 -969.04881 -966.35506 -980.18680 -1018.64892 -1035.71223 -1062.38768 -1042.36700 -1053.90170 -1006.97394 -991.21576 -1055.97032 -1030.95900 -1075.60890 -1082.92796 -1121.64469 -1136.21723 -1176.18466 -1193.36791 -1186.58000 -1194.21353 -1203.82474 -1194.20458 -1205.11096 -1231.52527 -1250.44455 -1264.50419 -1190.55214 -1167.76513 -1168.00755 -1180.95729 -1240.37221 -1275.45432 -1348.00503 -1362.98738 -1371.82356 -1382.61323 -1371.78438 -1400.97370 -1445.03073 -1495.39843 -1531.76533 -1528.51867 -1495.94718 -1468.19747 -1417.57326 -1450.95119 -1479.59941 -1505.92389 -1525.23610 -1549.74360 -1585.79361 -1613.79495 -1628.95183 -1664.82758 -1731.53943 -1797.83430 -1850.62743 -1904.66731 -1902.00996 -1890.12459 -1869.76390 -1881.49036 -1883.69029 -1892.15638 -1901.31763 -1906.27066 -1904.86494 -1912.88879 -1932.72990 -1947.04714 -2020.19078 -2104.33275 -2213.93221
39.99700 40.02257 39.99660 39.99998 40.00000 40.00000 40.00000 40.00000 40.00000 40.00000 40.00000 40.00000 40.00000 40.00000 40.00000 40.00000 40.00725 39.96872 39.07733 38.02402 47.06746 67.06442 76.12102 81.58665 80.31849 79.92524 78.99162 79.98119 87.99421 108.61295 121.32455 120.76091 118.51458 120.03045 130.27992 146.08583 155.48876 159.52164 159.89536 158.17157 157.85680 162.57204 175.46595 190.67684 200.92367 202.44971 212.41142 223.09558 236.57800 239.29853 240.07750 240.10127 256.09519 260.85247 272.86221 279.28274 279.96464 284.04211 293.69908 287.44711 286.45722 284.38287 294.08751 302.66057 316.19038 325.92281 339.06956 350.86813 356.56057 375.51111 387.46182 419.37930 430.31575 456.30455 511.60688 537.19947 540.66299 543.83894 512.99744 506.66563 526.77772 558.75982 597.56294 620.10889 621.87931 646.36217 643.75493 647.16027 643.67473 670.41999 685.83196 711.32048 718.65058 706.50161 711.52434 733.27159 748.85116 728.60066 738.09053 816.94933 846.63345 843.59438 833.89137 815.95115 712.09289 534.66766 543.03047 646.72430 647.93081 572.66187 423.36732 261.95266 138.82393 96.70033 43.81741 5.62649 -4.13833 -1.62425 -0.13025 0.13526 0.08927 -0.01451 -0.01870 -0.00615 0.17012 0.27699 0.11966 -0.02069 0.41972 0.43403 -8.41215 -8.10336 -30.16494 -46.86396 -64.91050 -85.80741 -132.22829 -137.66480 -117.33695 -87.24146 -70.54690 -45.77123 -25.46807 -20.26482 -18.56279 -12.98532 -4.12176 5.05135 4.36073 -6.11192 -20.95741 -32.30534 -31.58264 -37.89174 -33.95596 -20.04988 -6.40284 -2.75867 -8.02243 -18.31648 -38.17078 -59.10436 -116.97907 -210.35907 -277.27211 -433.38723 -661.68837 -707.51316 -831.35811 -855.93398 -855.34874 -876.06648 -913.64488 -932.44080 -965.80604 -1029.69676 -1039.70948 -1049.19350 -1041.39434 -1050.92490 -1053.89749 -1060.26114 -1077.32556 -1079.74325 -1089.76801 -1103.63519 -1113.56635 -1112.91486 -1114.44170 -1112.28978 -1110.02563 -1101.20374 -1102.13507 -1094.44264 -1100.26669 -1092.69311 -1082.76355 -1072.27360 -1054.58845 -1021.84064 -981.14368 -888.73796 -874.69259 -889.39065 -849.39044 -847.30361 -876.69259 -913.40185 -958.32203 -977.08862 -946.92093 -927.40164 -867.23126 -868.11226 -895.03669 -965.82945 -989.84895 -1003.49852 -1034.19334 -1079.94908 -1131.66450 -1148.60453 -1143.72545 -1148.45976 -1114.33783 -1110.31249 -1171.69134 -1209.92811 -1245.03975 -1220.78592 -1151.44983 -1102.37170 -1105.34342 -1129.14336 -1154.72040 -1216.17618 -1275.64013 -1281.89217 -1292.99917 -1260.78115 -1274.09529 -1313.35164 -1356.10854 -1399.97190 -1437.06402 -1438.62269 -1415.42754 -1388.44142 -1360.99787 -1374.81503 -1429.71408 -1440.91645 -1470.84544 -1529.52030 -1559.54247 -1590.02528 -1610.75781 -1661.98056 -1713.49247 -1760.47511 -1813.48625 -1831.69689 -1838.32991 -1844.24495 -1826.36835 -1828.67593 -1839.86484 -1856.32464 -1872.03901 -1880.92027 -1874.13913 -1884.08782 -1909.07514 -1917.17791 -1967.94563 -2031.02882 -2163.49485
40.39980 40.00389 39.97824 39.99904 40.00000 39.99930 39.99929 40.00000 40.00000 40.00000 40.00000 40.00000 40.00000 40.00000 40.00000 40.00000 40.00000 39.94680 39.63678 38.57690 47.60702 66.89003 80.57209 81.79090 80.46654 79.85176 79.07034 80.15727 89.57441 109.58830 122.07000 120.82401 119.69129 120.99796 126.10589 132.71033 142.75519 156.07974 159.27851 158.92068 157.51080 160.89251 173.25605 191.31942 200.92024 200.66625 202.96338 207.50479 226.94398 236.04794 241.00875 240.78033 242.25450 247.83713 265.41198 278.34822 281.44602 281.22909 282.75214 282.91047 280.66486 287.87892 305.48277 316.58166 318.85839 328.26974 342.45990 356.13459 355.03268 369.16690 387.36803 395.00381 398.18289 429.38057 480.30611 502.83427 489.53586 489.51149 481.29717 499.79371 514.33609 556.40216 583.24685 598.41532 605.06158 630.06199 634.74295 638.19700 646.35769 671.06711 702.38596 724.12430 727.63461 726.94689 732.67194 743.34247 766.97433 786.69841 823.40147 895.89012 910.69668 891.47777 887.32447 909.58709 798.18319 655.57573 636.59936 730.58077 699.05809 432.75861 360.47830 174.63784 130.96853 81.20704 41.99007 17.79877 -1.63011 -0.25928 0.26867 0.84893 0.72840 0.11017 -0.06723 0.10854 0.78995 1.21062 0.88217 0.24842 1.69670 -2.86780 -29.24372 -32.83005 -52.65016 -60.35051 -55.02252 -74.53880 -106.48480 -123.34262 -93.89815 -63.77715 -24.13337 -15.27225 -5.99774 -14.82313 -27.02778 -25.53492 -4.07976 2.30803 -8.62367 -31.14289 -30.96587 -34.41126 -32.53914 -37.31523 -28.49507 -18.01625 -12.91189 -17.52218 -30.41957 -48.42384 -63.66449 -106.76338 -205.93263 -326.16803 -491.71219 -637.47713 -717.64368 -786.39140 -873.59530 -896.10881 -938.38062 -957.32796 -981.97099 -1013.10775 -1030.69226 -1058.27733 -1076.44209 -1087.37916 -1085.50907 -1078.28244 -1079.58619 -1080.06927 -1078.97098 -1071.24788 -1073.48111 -1098.62717 -1105.49070 -1108.72631 -1096.79025 -1087.84751 -1075.86375 -1072.35385 -1065.80695 -1065.93587 -1057.87328 -1053.73383 -1054.82408 -1045.41674 -1023.45679 -964.01095 -894.28466 -786.20494 -770.75849 -799.70623 -679.29122 -619.54213 -705.85554 -850.19621 -877.65342 -834.75538 -800.65064 -790.02587 -760.71167 -773.77443 -859.42660 -853.38027 -889.25831 -911.56066 -946.18226 -988.32544 -1048.74451 -1091.17937 -1096.44498 -1059.53495 -1053.06396 -1040.71512 -1090.30895 -1155.99646 -1151.99156 -1154.92643 -1111.52712 -1047.60166 -1033.65347 -1090.03054 -1093.09862 -1162.64173 -1208.33438 -1216.72012 -1173.54612 -1140.06218 -1207.87818 -1202.24908 -1264.32785 -1254.63841 -1309.11794 -1317.47581 -1341.85718 -1289.14273 -1281.36612 -1330.66694 -1374.99567 -1423.76832 -1436.93468 -1489.91889 -1524.26306 -1574.49351 -1602.94388 -1666.52955 -1687.63441 -1725.64308 -1751.26225 -1756.08810 -1759.04398 -1758.34915 -1786.82608 -1781.79398 -1786.53642 -1809.96521 -1812.55197 -1837.10540 -1810.99312 -1800.64721 -1824.28981 -1878.63387 -1922.69778 -2021.34717 -2107.66865
40.89839 40.15486 40.26345 40.10117 40.03035 39.98358 39.99805 40.00000 40.00000 40.00000 40.00000 40.00000 40.00000 40.00000 40.00000 40.00000 40.00000 39.96716 39.83045 39.01080 46.17779 64.21588 76.65694 80.65475 79.99912 79.93875 79.04112 79.95386 95.91394 108.79106 121.66046 120.97713 120.22966 119.94915 119.93082 121.82399 135.72095 145.32522 158.44302 158.45894 158.85827 160.59075 169.12849 188.74727 193.48766 197.76961 198.77310 200.23302 219.08756 235.26605 241.99552 239.65711 237.00769 241.18906 260.35206 276.39546 281.83551 279.76485 279.12700 277.49194 278.55695 287.26513 310.80995 319.82062 322.60339 324.69447 334.17875 336.57377 338.33482 343.42877 369.79594 374.70679 377.00066 399.64605 430.40170 458.92028 466.95906 463.21350 474.57352 497.20911 518.87931 538.44362 565.98977 566.43235 569.57433 602.07344 619.08311 633.52519 645.26470 674.31928 719.65904 744.31326 759.94016 766.93978 771.05124 766.06126 776.03022 838.11326 879.33407 944.90284 956.66416 973.32959 987.95966 952.06847 882.05681 762.88482 697.80540 709.79223 577.52565 387.42000 283.10442 166.21837 116.12562 88.86214 48.14516 11.57840 -3.72555 -0.46839 0.78950 1.90367 1.81915 0.54989 0.02892 -0.01397 0.23123 0.67224 0.29385 0.76996 2.44559 -10.45648 -37.15068 -70.47547 -81.42843 -72.36245 -58.46315 -68.67782 -90.60059 -95.56320 -56.49121 -33.51244 -12.37151 2.24173 4.67533 -7.69698 -29.90525 -37.32140 -14.96009 -22.60009 -62.88455 -75.69356 -39.48344 -15.45018 -14.13395 -15.00777 -15.06238 -13.73303 -28.48906 -54.15963 -92.28072 -98.41235 -159.28717 -164.90781 -310.18901 -483.26998 -599.19486 -766.86878 -809.83199 -885.48815 -905.30730 -950.28356 -999.56076 -1024.47136 -1040.74236 -1072.22534 -1083.66646 -1091.18319 -1109.70308 -1103.50906 -1100.54369 -1093.50193 -1084.94890 -1082.00583 -1076.23791 -1060.72166 -1056.23846 -1075.28571 -1092.60741 -1084.09677 -1075.45858 -1069.19954 -1034.86943 -1036.85462 -1040.96702 -1047.89301 -1044.13741 -1030.05487 -1020.81662 -1003.02952 -970.72926 -909.17085 -862.01656 -770.93808 -721.96773 -631.69815 -498.50627 -432.31854 -445.58433 -676.58847 -742.08114 -720.53404 -645.05138 -623.34785 -613.72043 -629.48762 -721.22871 -727.78345 -749.34205 -817.28570 -858.35014 -939.94544 -983.78187 -1019.77148 -1024.61202 -945.73933 -950.93788 -955.09950 -1012.94180 -1034.10523 -1048.78048 -1065.29289 -975.94791 -978.40114 -960.87236 -969.78315 -1040.53654 -1087.58123 -1120.73323 -1085.68783 -1019.54082 -1010.19553 -1015.77684 -1037.48980 -1066.45507 -1165.64617 -1186.90201 -1230.77566 -1209.92018 -1214.34597 -1222.73044 -1258.15293 -1340.63853 -1381.01382 -1392.98631 -1438.30372 -1492.42909 -1554.63827 -1589.56633 -1625.35180 -1651.31432 -1669.38372 -1684.84210 -1699.91897 -1708.72366 -1711.31746 -1718.17249 -1737.00956 -1729.10142 -1747.06081 -1767.16562 -1741.58508 -1721.90243 -1736.64085 -1769.91968 -1847.36535 -1897.19085 -2002.95142 -2071.84067
38.87414 41.46394 41.11873 40.63394 40.19400 39.94622 39.98292 39.99943 40.00000 40.00000 40.00000 40.00000 40.00000 40.00000 40.00000 40.00000 40.00000 39.94755 39.75770 39.56615 44.36803 52.52404 65.82542 73.47840 80.07112 80.51010 79.50257 80.80789 88.69546 108.15333 119.99030 121.07585 120.20971 119.88625 118.99056 118.25379 124.36809 137.01067 146.77796 154.88546 160.96422 159.94814 166.95652 173.07178 186.32392 195.33026 198.85029 202.96901 213.61959 234.79206 243.53183 239.40725 235.96439 242.89545 257.75215 275.59955 281.88951 280.00995 279.42739 278.35237 280.21157 284.72756 303.82146 314.84966 321.01484 321.30502 323.18361 325.66756 326.03965 334.73275 349.27754 361.25922 366.87896 376.38887 392.88344 411.36370 442.21512 448.58923 466.71302 486.24069 509.78449 525.67967 534.67259 545.97140 562.45919 581.98536 609.13964 626.72776 630.60332 692.58550 731.52718 773.51864 791.76966 797.55470 794.36431 823.28171 846.84241 873.29787 899.76259 917.45029 984.73667 1025.35685 1003.02828 955.79509 852.92033 796.39874 716.56464 611.17164 474.15762 329.85698 207.22375 136.98445 109.01024 85.29803 52.63965 14.27439 -2.54204 -1.94042 -2.78217 -5.65951 -0.67838 -0.47432 0.19192 -1.75394 -4.82265 -10.59984 -6.32030 2.09157 4.18786 -9.55878 -34.75293 -69.34444 -80.14479 -80.39880 -68.28234 -67.95262 -67.49541 -68.06958 -50.38921 -31.77498 -13.53255 1.96325 4.26470 -9.26356 -30.89611 -34.76444 -11.85892 -29.66253 -96.75128 -91.16710 -41.28215 -1.45113 3.59585 -0.70473 1.92590 -11.49275 -49.42988 -89.95212 -123.18476 -154.01118 -209.71896 -247.70919 -582.72041 -669.88297 -801.87205 -901.17580 -921.81730 -982.37445 -1007.88372 -1034.62745 -1038.14308 -1062.49326 -1095.34883 -1104.09500 -1111.56548 -1117.92565 -1115.81483 -1118.35272 -1116.81630 -1098.21234 -1087.58704 -1084.36352 -1082.77830 -1060.89249 -1051.14725 -1056.91023 -1066.65596 -1057.23361 -1027.64898 -1020.29081 -1009.05357 -1013.11081 -1029.45984 -1053.37812 -1039.81266 -1007.41674 -990.56345 -963.15275 -924.81371 -832.98024 -793.89050 -749.80417 -703.25993 -568.26143 -404.54096 -295.75952 -330.34884 -517.34472 -577.00259 -596.07747 -508.71141 -502.76997 -491.52570 -504.62169 -526.05661 -620.10595 -642.33686 -669.36314 -736.29683 -814.24546 -885.46182 -902.76444 -862.89454 -880.54226 -796.21690 -851.65413 -850.07715 -834.07320 -936.08545 -910.52562 -925.42885 -881.31981 -867.76349 -855.28362 -913.83623 -887.36316 -923.33263 -868.60469 -870.69239 -803.30265 -736.57286 -901.04571 -949.62666 -984.84759 -978.15654 -1036.61815 -1076.43460 -1129.40969 -1126.37326 -1191.93845 -1282.35372 -1340.15152 -1371.20831 -1420.19482 -1480.64267 -1528.02533 -1549.08545 -1551.11192 -1545.80810 -1575.87546 -1625.45415 -1656.15106 -1660.95803 -1645.58063 -1673.63750 -1657.88923 -1649.64943 -1661.55992 -1636.02811 -1642.94062 -1632.40775 -1628.11879 -1682.82723 -1774.66088 -1856.46046 -1991.38476 -2051.99507
36.90704 40.02554 40.40958 40.92975 40.21786 39.93006 39.94595 40.00002 40.00000 40.00000 40.00000 40.00000 40.00000 40.00000 40.00000 40.00000 40.00000 39.99820 39.89044 39.75086 39.76167 44.87068 55.87310 65.00017 78.90596 81.11690 79.26509 79.96990 88.47709 109.05633 120.50903 121.39415 120.22192 120.00802 119.60409 119.74396 119.43681 121.24743 136.93012 153.17465 161.26358 160.20451 160.44225 167.00768 179.82440 190.71534 200.01134 204.06404 213.53908 233.01150 236.99248 240.21127 241.59356 252.82304 267.84945 279.42735 282.52308 280.93453 280.40541 279.71291 279.60160 284.29401 299.45328 306.06913 317.77130 321.60990 321.10000 319.34496 318.25012 323.76150 327.91819 345.61368 355.04802 367.01578 382.92930 406.97590 427.49784 443.53106 452.67098 467.15721 482.32229 503.55707 505.84521 531.02764 552.23464 563.01835 570.20316 585.17337 618.36056 665.68565 740.58469 794.41746 824.19052 837.64209 842.67725 881.09500 888.72773 893.96357 898.32018 936.76327 987.86371 1066.43817 1038.17662 951.98577 827.71316 766.56913 692.37728 586.61987 431.95041 303.05204 208.67813 138.66267 100.63959 73.81352 42.93283 16.84373 0.11192 0.19704 -5.20306 -21.87211 -19.30429 -5.13329 0.94806 -0.15156 -10.38534 -20.24181 -15.07767 0.10676 4.81460 -5.57068 -19.70630 -42.55200 -69.39862 -77.02987 -77.92413 -68.96370 -47.42989 -37.77671 -33.35422 -28.83489 -11.46508 -1.07230 2.51407 -7.44277 -17.71347 -21.63820 -8.88976 -23.04544 -76.60977 -76.49694 -28.98024 -0.26021 4.49541 7.82010 7.06487 -21.77994 -90.65623 -143.07997 -200.07081 -247.33247 -277.18682 -436.04147 -706.31281 -814.24171 -912.19166 -960.69369 -1022.67354 -1057.63555 -1067.15209 -1069.96830 -1086.22585 -1104.68290 -1119.92779 -1129.77040 -1132.29971 -1123.90118 -1116.00065 -1117.89422 -1125.79717 -1108.80338 -1090.85387 -1085.91708 -1081.24123 -1062.46842 -1049.47756 -1044.43921 -1045.96133 -1025.42713 -1003.27593 -981.13847 -976.97638 -991.10141 -1006.22563 -1043.15438 -1033.49325 -983.69306 -952.31831 -885.99410 -830.57534 -777.47352 -711.89099 -674.06979 -631.99445 -541.27676 -416.47705 -352.09023 -362.49661 -464.38922 -475.66111 -447.20000 -412.04302 -372.80191 -360.25534 -378.32870 -419.72294 -465.48749 -485.78636 -562.45293 -624.97051 -657.68184 -742.71406 -752.05368 -644.66544 -650.79472 -666.69931 -693.88899 -708.68053 -693.85358 -762.02832 -817.99169 -793.39000 -776.84752 -710.60273 -697.10722 -710.27853 -732.69025 -677.05171 -678.63054 -635.88749 -612.84968 -608.25156 -619.42839 -735.45303 -773.96788 -825.95856 -873.84336 -907.73778 -937.76997 -1060.95414 -1136.62514 -1208.36023 -1273.14755 -1338.25539 -1384.54879 -1465.76558 -1500.26860 -1497.86624 -1486.58668 -1482.34698 -1506.50147 -1550.56496 -1602.01916 -1611.90965 -1598.69967 -1606.33657 -1597.34784 -1578.56991 -1595.51732 -1567.83836 -1556.39536 -1513.15361 -1545.44605 -1587.84081 -1665.80568 -1854.95800 -1931.23770 -1983.24251
29.50884 36.66478 34.80616 35.49169 38.88669 40.12806 40.18007 40.00039 40.00000 40.00000 40.00000 40.00000 40.00000 40.00000 40.00000 40.00000 40.00000 40.00015 39.97578 39.97698 39.01942 39.16339 49.76792 63.36050 79.95241 81.27463 79.30597 78.26899 89.75117 107.58526 119.46414 121.05014 120.30689 120.00749 120.03893 119.82889 118.15312 116.94760 128.71225 154.53972 160.55600 160.64839 157.36490 160.00452 177.79774 194.28583 200.46078 201.41059 207.21931 216.66457 227.34026 240.53765 253.33099 271.92115 276.99252 280.64177 282.44730 279.97638 280.63966 279.66609 277.92024 280.84409 284.03951 295.21027 312.33436 318.56676 320.62155 320.12032 319.65806 320.04854 324.03952 330.80053 349.52111 366.41184 398.19892 412.01233 432.76681 439.29791 443.17214 453.30000 473.09591 477.68548 482.92160 498.73265 536.41393 553.19523 557.70509 570.23326 596.57729 672.09612 743.25833 780.83740 802.68544 839.12292 878.71645 902.80515 916.47306 906.84006 906.44049 947.81407 987.22894 1039.76565 992.89227 868.40666 723.16030 670.24929 608.87132 554.97372 407.11096 319.43870 229.68417 177.79514 88.90670 67.10368 15.47117 9.17221 -0.30697 -1.24175 -12.61585 -27.24739 -24.68706 -8.72287 -1.19825 -6.50291 -17.92723 -27.95736 -21.04659 -8.76903 0.07930 -2.93123 -10.51691 -29.20647 -36.57589 -45.78041 -57.32594 -40.30229 -33.01583 -16.52314 -18.80707 -16.14164 -7.29070 -0.50061 1.24032 -1.75157 -3.43739 -4.31632 -1.93177 -4.45164 -16.68953 -27.33471 -8.08503 0.70252 1.81539 -2.58037 -10.38725 -51.76465 -126.91184 -234.51946 -283.60536 -315.88703 -418.64430 -541.44582 -894.83430 -955.21732 -1015.93560 -1029.45858 -1059.41773 -1074.04455 -1084.83851 -1092.64028 -1106.50149 -1115.57783 -1124.83908 -1138.86549 -1145.18026 -1124.79065 -1110.99155 -1102.44637 -1117.67091 -1097.32783 -1082.14848 -1069.08655 -1052.60665 -1034.00265 -1030.27259 -1036.33281 -1036.24076 -1022.18925 -995.06888 -968.64600 -958.84941 -968.63570 -979.48491 -994.02025 -986.47166 -968.21090 -915.82064 -830.01989 -753.82326 -641.56386 -588.30037 -587.93448 -573.54427 -546.89614 -470.84538 -456.92933 -418.52839 -411.81924 -398.34638 -365.21392 -351.20164 -312.26254 -303.07867 -306.50725 -347.54900 -387.91832 -404.34455 -434.05915 -466.39039 -489.82131 -490.56336 -465.77073 -462.68698 -357.27025 -405.82765 -501.76648 -519.25578 -513.64474 -554.28504 -634.54214 -673.19584 -674.56824 -649.90459 -613.63057 -645.65561 -655.30119 -634.25025 -567.29694 -496.62163 -449.16453 -471.80819 -525.75148 -592.70136 -623.19945 -712.75376 -762.87884 -795.31617 -813.25053 -891.93075 -1056.45960 -1100.65562 -1196.14257 -1261.54442 -1328.87790 -1403.13990 -1499.33461 -1494.67117 -1482.47755 -1469.64469 -1469.76553 -1475.70093 -1501.69659 -1513.67359 -1534.12919 -1515.56983 -1495.26393 -1481.73533 -1466.80554 -1475.19220 -1477.36942 -1478.10347 -1516.35279 -1557.80243 -1635.15296 -1796.41203 -1896.03408 -1966.96747
9.89110 20.30777 16.72873 25.46730 33.77753 41.23234 40.14663 40.01354 40.00000 40.00000 40.00000 40.00000 40.00000 40.00000 40.00000 40.00000 40.00000 40.00085 40.00429 40.00390 39.11517 38.31236 49.57389 66.46039 80.19531 81.26060 79.47850 79.44868 88.85003 106.06011 121.37506 121.46951 120.16932 119.98996 120.02293 119.61909 118.95057 122.70116 127.58733 151.72755 160.75545 160.68438 158.33534 161.18421 175.03896 196.04369 200.94776 200.62147 202.13157 201.84834 219.29524 238.77034 257.75939 269.61723 271.37543 276.30737 271.88495 274.13992 276.09991 278.76594 274.18680 273.25244 275.28165 287.57544 297.31930 308.86272 310.38236 306.95313 315.99849 318.31046 319.27656 325.13616 335.26302 362.49186 405.48388 436.82658 443.34786 438.22164 436.95955 453.08999 470.63215 476.15561 475.51500 493.79184 524.16659 537.01532 550.08912 566.02081 602.16941 673.57817 719.30265 732.16142 768.10812 808.10280 895.06779 923.07312 923.54193 919.10496 924.71619 950.17777 993.03930 1017.72345 940.69474 841.34790 688.40398 630.83881 573.95706 525.40058 485.69859 435.41244 377.91136 192.33999 104.47061 59.55681 22.34316 9.24327 -5.55223 -15.06031 -20.44748 -22.72210 -16.00615 -5.40393 -2.69598 -16.35965 -22.93220 -15.15712 -17.55853 -24.33447 -14.69501 -6.91397 -1.66344 -2.64429 -12.89487 -12.66949 -18.74805 -7.64944 -9.54339 -6.26949 -5.21887 -3.27922 -0.68148 -0.23145 -0.27847 1.32904 4.29617 5.09556 0.87400 0.24656 2.06579 2.93124 1.89015 -1.03657 -6.04152 -16.10412 -44.24748 -85.51909 -151.34086 -214.75769 -346.19409 -375.93299 -458.62889 -669.48613 -896.27068 -1048.16172 -1067.06714 -1066.81475 -1071.10272 -1082.30574 -1087.52979 -1105.45399 -1118.62509 -1119.56700 -1128.81310 -1142.21540 -1145.89536 -1118.32436 -1092.15095 -1079.17522 -1078.29949 -1052.40925 -1040.97754 -986.40708 -984.74881 -977.14419 -986.34508 -1018.24416 -1035.60463 -1019.00013 -1004.72249 -971.95368 -960.80671 -964.11812 -960.22722 -938.50757 -930.44385 -928.52702 -891.07645 -809.20942 -701.01374 -615.76106 -562.50091 -546.93391 -540.55363 -526.37433 -508.11238 -468.36475 -443.66087 -408.07305 -383.62746 -352.78773 -337.80342 -313.64818 -297.14102 -287.97820 -311.48983 -375.54279 -365.78258 -368.45406 -293.57137 -271.99249 -285.19239 -250.99245 -244.36691 -255.07993 -293.84707 -296.84018 -336.84988 -330.11935 -317.02534 -405.31988 -538.85742 -548.47477 -523.81515 -533.51092 -571.64793 -613.41940 -578.38808 -521.58825 -434.62352 -364.20848 -314.42349 -383.02176 -390.15382 -481.31052 -576.02121 -646.85424 -670.80451 -651.36049 -690.80329 -796.44226 -1010.79091 -1050.95552 -1104.23710 -1139.13305 -1255.86932 -1468.53162 -1485.18859 -1474.05570 -1461.94603 -1440.26755 -1438.59752 -1456.79988 -1485.75811 -1502.08186 -1481.82437 -1452.99326 -1442.47875 -1450.06411 -1448.15744 -1450.40795 -1464.35134 -1511.04081 -1558.31253 -1628.01816 -1704.25592 -1815.61966 -1922.80700
-11.83874 -4.74395 -4.97614 11.04125 32.03391 41.62346 40.68252 40.03668 40.00000 40.00000 40.00000 40.00000 40.00000 40.00000 40.00000 40.00000 40.00000 40.00012 40.00573 39.97374 39.76638 38.93220 44.82155 64.97798 78.62188 81.18320 79.00683 78.91493 88.30391 109.59777 121.03089 121.88447 120.25938 119.96153 119.99338 119.94970 118.93403 120.23762 126.30450 135.86940 151.65499 157.30335 158.99856 164.35612 172.27808 193.31320 200.33505 200.22879 198.39985 199.24013 211.47231 236.37836 245.90524 256.05406 259.20342 251.50538 258.78166 262.29010 269.04152 280.20506 261.27997 257.31832 266.48889 277.13319 287.09705 291.05327 288.54398 291.95956 308.70565 319.52666 320.01549 317.40656 325.00661 365.24116 403.37686 456.94315 453.96081 441.15782 436.66243 444.41566 474.56971 479.14213 483.14293 498.75684 518.63952 535.86683 562.74487 582.64170 597.16711 645.78848 689.91653 699.38565 728.56496 806.57734 881.81697 932.46297 937.95034 934.39109 944.29952 965.71551 981.80187 975.89419 902.00072 829.16995 655.87537 606.99184 581.53105 540.73485 589.02847 648.49065 614.72586 407.54478 115.06360 66.54373 31.44299 4.96299 -12.28724 -22.65137 -24.16119 -11.85925 -2.84944 -2.58405 -12.89766 -28.63297 -23.11181 -12.79774 -15.76980 -26.12876 -24.70719 -14.56004 -4.87168 0.08017 1.57343 1.04815 3.64760 -0.22051 -9.41950 -14.47231 -8.52714 -0.14517 1.29255 0.11856 -0.65454 1.34139 5.05121 6.09421 5.10293 1.38965 2.62358 3.87788 2.85624 -2.37749 -27.29767 -36.61797 -95.16736 -137.87596 -230.44614 -278.05781 -376.59900 -458.84789 -606.83011 -730.43739 -904.97753 -1061.52499 -1058.62132 -1059.63827 -1067.84201 -1084.40042 -1091.76456 -1126.30088 -1138.81218 -1143.44635 -1147.03016 -1144.23999 -1139.30401 -1114.32496 -1083.67266 -1062.50741 -1034.72303 -1005.71502 -988.23154 -880.30037 -807.08701 -752.57905 -803.61170 -865.46414 -1016.96198 -1018.08091 -995.56372 -978.12853 -961.65732 -961.19258 -951.29261 -934.39707 -918.21950 -910.66280 -881.63776 -830.61467 -759.55084 -699.42130 -606.69840 -561.84131 -525.21816 -519.29398 -505.53231 -477.41009 -426.36402 -407.14661 -385.25127 -376.01723 -353.80091 -353.29692 -333.66948 -296.89811 -316.92758 -364.56331 -348.42984 -267.76895 -244.92865 -255.61399 -250.83091 -240.26476 -239.16706 -236.37155 -242.17616 -164.09228 -82.07850 -5.84280 -142.70902 -236.04302 -350.83109 -440.55869 -461.94985 -459.25977 -541.45274 -591.02081 -576.19394 -493.61548 -405.07706 -268.98283 -245.10396 -261.85761 -312.68826 -317.03646 -397.74387 -421.58918 -509.98117 -474.02068 -549.67909 -578.64037 -768.56897 -925.50796 -932.15973 -898.86972 -1079.53309 -1365.14950 -1430.51512 -1437.04104 -1422.00716 -1416.18130 -1429.44292 -1435.55939 -1404.29762 -1427.24822 -1390.68295 -1424.64900 -1440.18806 -1446.83410 -1435.34371 -1444.00877 -1480.46605 -1510.36954 -1551.33185 -1588.35311 -1685.25095 -1779.58893 -1869.22392
-55.62224 -42.04849 -24.81786 6.02394 29.01534 42.20182 41.30801 40.03918 40.00000 39.99999 40.00000 40.00000 40.00000 40.00000 40.00000 40.00000 40.00000 40.00000 39.99759 39.98817 39.22443 38.44884 43.00908 61.16346 76.96599 81.17215 79.63866 80.08343 87.51089 112.49139 119.83414 121.99943 120.32112 120.06012 119.99959 119.93367 119.82587 119.80753 121.29944 124.48859 136.16314 153.18115 158.88192 162.36217 176.06668 193.03202 199.91161 199.83084 198.33374 200.38245 214.31424 236.48878 243.21446 241.58051 240.34798 242.79930 241.14722 243.82735 259.25353 270.98320 259.61558 254.39063 265.78173 279.28448 280.32370 280.83435 279.43385 288.92442 305.99997 318.54423 320.85320 316.76119 317.12453 346.05000 408.59302 441.13106 446.92779 439.88327 438.78377 443.44285 468.29061 487.39566 513.85926 531.67299 561.51901 572.27550 596.90587 609.25456 622.84269 638.20420 653.94310 653.17809 660.61150 760.98663 834.11996 922.99911 947.84107 946.78741 953.39777 963.15712 969.84709 940.19889 872.65720 769.50937 653.87391 609.77601 589.94710 558.04964 620.35295 785.28261 770.91045 491.48045 157.80867 86.62111 65.99774 25.16260 -8.54239 -22.80158 -20.29999 -7.44556 -1.22690 -12.56249 -20.73707 -21.40473 -18.80814 -20.62026 -19.62958 -17.66765 -21.42884 -21.03535 -11.10128 -0.40202 3.00033 2.92160 3.64302 0.35508 -14.22274 -24.01108 -20.82907 -4.87307 1.08285 0.33399 2.58711 -2.13602 -17.31529 -44.11679 -39.54496 -7.77746 4.26730 2.20914 3.09458 -5.83113 -39.07375 -104.67754 -136.24117 -183.51598 -255.86437 -355.69952 -447.60025 -572.83183 -705.45602 -826.63743 -945.96493 -1024.00993 -1027.32067 -1033.61554 -1052.82393 -1096.22137 -1140.26480 -1156.80445 -1164.62710 -1162.79930 -1155.53732 -1148.83797 -1120.88614 -1105.28509 -1095.22721 -1066.77904 -1046.84585 -1025.94505 -930.12529 -759.57215 -510.69398 -396.02861 -461.47999 -585.89207 -891.70525 -1001.72653 -989.87990 -968.58480 -963.36532 -960.42032 -958.24645 -941.37311 -921.81438 -901.42867 -885.65999 -823.63973 -793.57804 -722.66055 -659.86416 -572.84341 -523.07928 -515.07193 -503.83911 -463.26014 -419.31121 -397.53579 -386.77829 -393.83402 -403.30717 -389.35802 -370.77322 -328.39891 -333.90803 -352.38003 -338.89931 -264.73746 -229.65578 -228.91960 -234.34211 -235.32180 -248.45557 -265.93878 -246.13369 -122.57943 -8.32709 7.66719 -38.22302 -140.94863 -166.16121 -304.01285 -395.28859 -408.07324 -474.93567 -559.23981 -572.71401 -515.68368 -414.07724 -264.30177 -170.83140 -128.66514 -143.24503 -185.22700 -249.25454 -281.52358 -300.43759 -313.13653 -374.93064 -509.30650 -720.36519 -825.20605 -643.77933 -466.20722 -658.36314 -1115.22222 -1352.69440 -1355.03455 -1174.89319 -1261.81612 -1198.17865 -1216.89339 -1163.17167 -1020.44108 -1193.61626 -1371.40677 -1440.93404 -1446.05845 -1427.72607 -1422.26354 -1469.06268 -1502.21587 -1531.58738 -1549.74378 -1618.84725 -1704.05405 -1847.38914
-75.00962 -54.37341 -33.98083 2.39083 32.08715 42.27034 40.35019 39.99062 39.99869 39.99933 40.00000 40.00000 40.00000 40.00000 40.00000 40.00000 40.00000 40.00000 40.00000 39.98387 39.47508 38.35791 45.56794 64.31343 78.34449 81.31669 79.28617 79.94967 86.76375 98.62690 115.63815 118.76689 121.57032 120.71836 120.06153 119.97034 119.99601 119.97742 118.33853 119.96262 131.28086 148.67824 160.53187 160.64117 168.83438 174.52572 192.68213 198.15824 199.06607 204.70720 218.95184 234.22757 240.22461 239.09615 237.90638 238.68849 237.48007 238.88282 250.20407 258.53488 261.20892 264.49318 273.82242 278.90187 280.91974 278.32577 278.31517 282.92582 308.16502 316.42231 321.71343 318.37230 320.01341 331.15517 360.34925 399.21102 426.75998 436.21701 439.69804 443.37813 475.85223 501.69582 550.45283 566.54457 588.67127 610.31204 631.47319 637.22757 638.40624 641.01716 638.23146 634.75443 645.20880 735.75608 806.40318 889.05749 929.82403 970.80084 980.60801 979.23263 965.49869 914.47802 836.36644 757.99517 661.68690 637.63521 626.34988 578.82654 581.49513 651.84273 631.91698 361.74311 176.34653 153.75104 131.78454 53.85302 -12.85578 -14.14737 -6.42274 -4.87680 -6.21992 -26.03907 -27.72520 -14.40032 -14.54110 -23.49387 -23.21471 -12.22548 -14.77936 -28.14011 -27.20312 -8.39384 -0.81680 -0.75168 1.75794 -2.42282 -9.69183 -19.59405 -17.88095 -4.14173 0.49843 3.08233 10.81585 -5.15106 -78.85342 -162.79113 -115.99145 -8.29533 9.48825 5.25519 5.91365 -20.73375 -104.11430 -167.61713 -184.10364 -245.75104 -340.94455 -445.96421 -539.46049 -656.06809 -782.69533 -929.10626 -1002.25424 -1075.98950 -1036.22071 -1069.21824 -1097.90406 -1133.52881 -1177.17676 -1186.19359 -1175.94912 -1169.57602 -1164.20453 -1128.10647 -1108.86054 -1097.79291 -1100.92648 -1110.00704 -1101.16577 -1049.98863 -977.14389 -617.15082 -255.28760 -74.47748 -100.55688 -335.29164 -800.98565 -943.10557 -954.77402 -952.67045 -947.88887 -950.96970 -949.11382 -939.07554 -920.38157 -904.67450 -879.99054 -842.06461 -801.95973 -729.73553 -664.03414 -598.88940 -548.67750 -516.83007 -514.86856 -468.64652 -398.20313 -378.80533 -376.33873 -400.28657 -417.31233 -403.33671 -389.90899 -333.99106 -317.59717 -325.99210 -259.10568 -234.60092 -190.90504 -204.90320 -217.17100 -216.49342 -228.72093 -247.50972 -213.41373 -137.77799 -57.78123 -39.29700 -19.31217 -58.09138 -126.71590 -233.84781 -309.14871 -325.80340 -357.36870 -509.17964 -538.56895 -529.25688 -440.75960 -334.38750 -164.00274 -79.96907 -45.65687 -47.40281 -90.75260 -103.47329 -164.63512 -169.88747 -222.90188 -409.17297 -465.25120 -705.65549 -553.70934 -132.35946 -463.83971 -762.04167 -889.05827 -864.78052 -806.90978 -722.31368 -646.32535 -470.90562 -478.45736 -575.14001 -825.26576 -1205.77130 -1437.21632 -1458.88512 -1427.34892 -1411.04822 -1446.61530 -1476.73957 -1506.13371 -1520.85631 -1573.67015 -1681.88218 -1780.79880
-48.55884 -44.25572 -30.51515 4.54439 32.90414 44.21982 40.75743 40.00131 39.98460 39.99795 40.00000 40.00000 40.00000 40.00000 40.00000 40.00000 40.00000 40.00000 40.00000 39.98205 39.36990 38.61078 45.36031 62.88847 78.12161 81.40527 80.39682 80.05943 83.08457 89.25861 93.92351 114.23988 123.07544 120.90214 120.32454 120.02956 120.02375 119.87516 118.76489 119.78164 131.47982 151.25793 160.45070 161.36311 162.94105 170.01930 179.73675 194.94212 199.86587 203.72557 216.70905 227.98710 241.43580 240.67690 239.58214 239.38379 239.23097 240.13080 244.36539 243.20502 253.31465 270.70365 277.48538 277.74935 279.16937 279.75739 278.35853 287.84144 299.30216 319.72880 321.85822 322.06765 330.76331 335.61823 354.88612 379.02450 413.52292 430.01168 444.65040 464.13022 493.19192 528.92208 561.46312 589.73647 614.07164 629.24117 637.48941 643.99257 642.49633 638.03679 620.64668 625.88534 660.69231 714.89823 798.98422 853.00381 903.60068 964.83039 1004.86033 992.50713 955.48721 901.48008 811.88389 739.85036 686.14319 648.16840 616.98371 589.67876 582.44616 588.04962 470.99020 282.08754 130.86347 163.91727 158.39507 62.25149 7.58035 -7.04141 -1.23296 1.08201 -5.97272 -19.10821 -22.76268 -17.07775 -16.06417 -19.51858 -21.46140 -17.61032 -19.17626 -23.23631 -20.76287 -21.82902 -14.22085 -5.20743 1.32615 -0.13140 -4.25427 -8.63665 -5.18618 -2.41442 0.63950 2.52546 6.11887 -19.18484 -115.80294 -221.66170 -168.57010 -33.97218 9.98565 7.27931 -1.74513 -30.10671 -108.31835 -223.74773 -277.75411 -329.58285 -452.63258 -576.92304 -666.17302 -839.65551 -955.42661 -1065.58226 -1073.69417 -1132.41970 -1164.59890 -1170.83969 -1191.75035 -1210.43216 -1211.56632 -1221.70951 -1215.58647 -1176.76285 -1141.21734 -1113.60205 -1096.52141 -1089.14097 -1103.46660 -1116.64893 -1078.94058 -1013.85829 -852.66786 -411.92242 -146.83223 70.19311 63.05566 -216.62179 -727.62737 -917.37034 -898.73798 -926.37014 -924.69156 -936.50943 -932.18240 -927.79568 -920.38535 -903.91679 -880.91473 -836.73964 -773.25410 -731.86702 -688.23443 -595.89337 -553.79651 -522.89817 -515.29009 -461.95591 -402.00283 -373.96157 -367.01762 -393.51645 -399.03141 -394.07246 -365.57597 -305.95583 -285.77681 -279.48835 -256.93857 -207.73610 -177.50855 -186.32556 -194.57160 -199.88971 -212.95747 -232.88631 -209.91913 -154.97788 -87.00426 -50.97062 -39.61241 -15.68909 -36.25821 -104.33751 -140.45459 -136.76952 -211.97803 -391.12940 -483.57481 -523.65509 -461.17865 -317.48278 -222.93862 -50.37606 -13.91456 -0.42430 -8.50201 -20.70673 -15.97621 -58.74535 -161.87126 -277.55053 -408.89693 -356.60979 -361.27240 -36.30584 -80.87674 -326.14067 -401.91954 -230.36962 -369.40737 -330.24622 -198.75433 -17.19330 -129.22001 -154.91219 -403.60987 -971.29466 -1210.16594 -1386.77312 -1400.61556 -1394.12049 -1411.63341 -1456.94456 -1478.83403 -1486.92245 -1536.46527 -1647.51426 -1729.17148
-8.40497 -11.53915 -7.69226 12.91125 36.31420 38.54128 40.58568 40.05284 39.99083 39.99902 40.00000 40.00000 40.00000 40.00000 40.00000 40.00000 40.00000 40.00000 40.00000 39.99264 39.41639 39.03259 46.17665 63.85716 78.88237 81.42454 80.36482 79.83613 79.73656 80.91296 90.90067 98.20137 117.59892 121.00894 120.76750 120.19527 120.03712 119.96159 119.17918 121.67048 127.77728 143.80187 154.99581 158.96385 159.30051 159.51310 177.28878 189.68234 201.70578 199.68805 209.60539 226.03124 233.35916 238.89662 241.40130 240.67209 239.96940 239.76160 238.72002 241.86787 249.94210 259.08440 260.41990 264.06831 269.39454 279.21971 280.43235 285.31433 290.71078 322.53127 322.91114 326.14018 340.80032 350.55867 373.17105 390.70462 403.44886 423.88671 450.88174 489.26807 523.42276 553.79484 582.18213 601.11328 623.98659 635.39084 641.85454 641.32567 637.17766 621.84037 607.99065 621.20189 655.04327 713.69876 787.85354 816.97823 843.01281 884.61049 937.81290 958.93702 917.17253 849.30615 774.81265 727.20522 678.96371 576.01894 556.73031 558.01385 553.43915 498.41103 351.60227 175.41493 88.99312 98.41083 96.16767 42.55372 7.17610 -3.93309 1.41744 0.34094 -0.81393 -7.37506 -14.18786 -23.56894 -25.73507 -13.95383 -15.18479 -27.76064 -26.39966 -14.34104 -14.26137 -24.17297 -24.37111 -10.35209 1.49353 1.50188 0.19589 0.55370 -0.53656 0.66324 4.24765 3.61986 -22.59343 -117.51009 -162.37469 -194.21153 -118.55971 -33.59664 4.61448 3.29503 -14.53491 -46.19559 -159.25268 -265.32079 -343.42600 -465.29392 -598.11525 -801.21838 -935.13734 -999.24463 -1073.13525 -1138.09015 -1182.02686 -1223.38739 -1241.02040 -1273.07601 -1256.30582 -1249.22127 -1259.65038 -1246.41103 -1219.07539 -1168.07614 -1122.45683 -1100.80309 -1083.46355 -1076.20320 -1074.29174 -1046.02600 -1029.88878 -902.87225 -704.41172 -434.20757 -169.04172 54.18710 37.25637 -198.76064 -612.42868 -885.30429 -862.26140 -850.60827 -901.89177 -911.63849 -917.96175 -921.30947 -911.19312 -890.33812 -874.31693 -812.90836 -767.37787 -741.02131 -676.39837 -630.34245 -555.41573 -540.29197 -509.52163 -473.72740 -407.37769 -374.09843 -365.45139 -367.90497 -368.90546 -333.92673 -303.45308 -263.87344 -248.54743 -243.31742 -228.26998 -203.31451 -184.35578 -170.95273 -167.69972 -185.57540 -221.35865 -236.57644 -204.81715 -148.10036 -75.06282 -41.31656 -31.04184 -15.38283 -7.04357 -1.54696 -10.47792 -44.16441 -79.25255 -244.03098 -454.70034 -518.24786 -496.81276 -403.56106 -315.49908 -127.50261 -48.37052 -15.75743 -4.16966 -4.24465 -6.05318 -23.90274 -48.15532 -154.14690 -197.23139 -134.46219 -98.59340 -1.81409 -20.85896 -70.56887 41.04775 69.71056 -0.65612 44.15901 54.34363 74.53944 86.77808 26.43861 -161.16278 -326.09211 -641.25839 -1121.76719 -1371.06657 -1408.88598 -1397.19341 -1425.70403 -1458.73370 -1471.95481 -1522.72506 -1640.61107 -1756.66118
2.63442 -5.03719 -7.73390 5.96885 19.62497 32.45778 39.80490 40.57038 40.22001 40.01348 40.00000 40.00000 40.00000 40.00000 40.00000 40.00000 40.00000 40.00000 40.00000 39.99506 39.56482 39.02105 43.32363 65.00091 76.25168 81.47581 80.32898 80.06310 79.56286 78.79363 81.83750 94.57279 102.80240 108.65122 120.93810 121.30349 120.19008 119.85130 119.56653 120.14287 123.82564 127.86264 142.44319 153.52629 159.34363 162.65159 173.22044 194.21340 201.82442 200.31860 203.38530 210.13833 224.28612 236.43785 241.39532 240.99410 240.59977 240.29343 239.54745 239.89261 243.04846 243.37248 247.01850 246.26807 261.32986 274.48075 277.01004 288.96097 297.25997 316.51872 313.84863 323.98178 336.66426 359.29597 384.27804 392.89479 397.05161 396.66689 450.67140 473.67170 520.09517 555.44482 572.44133 613.09707 635.37127 647.49120 652.74009 643.98263 624.52378 604.63159 593.05110 605.54305 634.44932 685.33398 724.34115 764.23667 734.22968 783.36967 808.44470 845.76157 854.23874 818.72673 766.53954 715.68398 622.20030 570.57363 447.05751 493.61902 535.09726 463.56996 303.14004 117.15611 41.12860 41.55845 23.21118 1.73971 -0.99401 -0.14965 -0.64315 -6.77942 -1.67340 -4.42216 -7.78948 -26.87918 -31.65764 -13.48119 -8.78543 -20.20862 -18.70109 -6.00411 -11.80834 -27.63175 -29.01565 -13.55697 -1.14427 1.54810 0.81085 1.11994 0.98695 2.60610 6.48504 -10.90009 -82.49294 -176.60827 -156.17255 -53.10152 -19.61479 7.55515 4.68196 2.30306 -32.67778 -112.00019 -187.46994 -314.49619 -432.79068 -513.13933 -659.93472 -885.20995 -1066.06246 -1127.84508 -1162.45014 -1198.64699 -1234.48661 -1236.71615 -1239.75119 -1237.09268 -1258.56640 -1272.23387 -1281.44677 -1261.55748 -1203.23060 -1128.33495 -1095.12649 -1084.99796 -1080.72007 -1079.29031 -1068.19893 -1032.25394 -931.59829 -645.39253 -572.68206 -305.25381 -101.61510 31.61610 45.86485 -205.40159 -507.46222 -776.46501 -793.20935 -814.02971 -847.35528 -890.66210 -910.80189 -910.11280 -901.20966 -876.82900 -854.52399 -820.60810 -775.66706 -736.78346 -687.74828 -634.69850 -573.56644 -544.24031 -509.97691 -477.32868 -418.37776 -383.67925 -364.31748 -355.50616 -336.23395 -296.58624 -249.59938 -226.80757 -227.89773 -236.45653 -231.08162 -223.20232 -217.79678 -180.69015 -158.57067 -177.96341 -232.64086 -243.18546 -199.51834 -99.99961 -25.24191 -8.11568 -25.36373 -19.29577 -31.27061 -0.13137 51.06663 72.52854 24.37173 -211.93773 -417.26018 -521.28294 -535.14554 -483.67005 -394.41748 -324.88322 -142.23441 -128.04968 -64.43733 -54.19216 -25.65162 -22.37130 -30.74409 -55.58158 -61.94908 -3.66270 6.05937 12.21312 12.36641 33.24645 59.01913 61.80420 53.66768 45.54260 30.37606 26.98015 27.73387 18.13522 19.24895 -110.56954 -420.45812 -859.52867 -1363.89522 -1407.84411 -1400.32953 -1407.51437 -1451.79157 -1471.59317 -1539.69335 -1657.19201 -1743.60751
2.07834 -11.64947 -22.21924 -23.35635 5.41696 17.51766 36.51478 41.41745 40.29882 40.02251 39.99427 39.99978 40.00000 40.00000 40.00000 40.00000 40.00000 40.00000 40.00000 39.99594 39.45362 38.44635 44.49539 61.81673 75.61009 81.95447 80.62472 80.00321 79.71498 79.78168 79.51577 77.72886 93.13246 103.80187 117.48677 119.36214 120.31737 120.10488 120.01825 119.86392 118.17528 118.68284 135.10733 149.74142 160.08339 162.39951 173.16601 188.82819 194.58011 199.94523 199.70778 200.51695 210.96373 220.13302 233.77888 239.72137 241.50734 241.95325 241.10623 240.84140 241.51157 239.33865 236.92959 240.58428 245.75835 262.60383 258.16100 259.46756 284.17035 299.97157 301.86341 302.81875 321.10602 341.65799 353.09788 377.12801 373.15326 385.35722 428.86643 462.64608 497.55858 528.37990 587.73195 616.59600 630.42789 642.62706 664.43224 657.61924 628.38232 607.70347 597.55598 604.94672 612.89588 647.69652 695.00328 679.18624 665.11086 641.74970 641.47432 713.73087 744.55445 760.00529 736.43752 693.07058 613.42851 476.13278 373.68878 457.71153 482.97576 332.03545 112.28258 71.87228 19.22759 -5.53928 -8.27390 -7.17767 -1.17933 0.79819 -2.95953 -16.48424 -20.55514 -6.79537 -9.92544 -28.80952 -31.38410 -17.73740 -2.06147 -3.99097 -7.46385 -1.76176 -7.25200 -27.97582 -32.83493 -16.89338 -4.73075 -0.35772 0.28796 0.44006 0.62141 0.80076 2.92706 -21.66906 -112.34172 -209.37060 -150.72360 -36.47213 12.81381 13.72608 9.29217 7.56618 -47.09767 -144.81674 -243.45058 -367.80407 -451.16467 -609.07896 -749.10360 -982.64495 -1118.17609 -1152.60149 -1213.54672 -1255.69365 -1241.16762 -1214.74149 -1210.11746 -1214.16334 -1256.79956 -1279.08902 -1285.89720 -1247.29210 -1193.43979 -1125.13366 -1084.89293 -1075.56147 -1080.29462 -1090.88989 -1112.59473 -1078.73422 -848.69995 -559.10490 -322.14853 -170.79475 -46.46785 20.05732 6.87338 -130.59566 -403.95829 -649.61002 -754.17767 -790.35425 -834.35135 -867.83294 -902.95758 -905.91124 -890.62147 -869.24559 -842.47115 -819.68968 -777.60086 -732.06545 -684.31827 -622.46339 -578.60281 -543.27121 -499.16474 -468.72958 -419.90437 -384.10372 -364.94560 -353.66352 -314.70877 -255.20445 -188.31509 -194.76930 -230.47060 -245.89881 -258.22954 -248.99210 -235.07767 -183.28456 -169.87971 -196.00904 -221.17688 -229.63019 -183.79830 -78.44755 -9.66031 3.64326 -46.33038 -63.00491 -63.23521 -53.06643 -1.23418 32.63353 -29.52685 -220.20741 -428.91387 -513.74516 -554.09509 -546.43161 -493.27855 -395.77266 -370.63271 -272.51778 -208.90547 -158.90579 -69.96467 -33.97264 -44.31548 -36.38535 -26.03013 10.52403 13.01858 5.10368 6.28167 8.73647 15.09282 10.69554 1.67394 8.54329 4.72658 2.47167 1.47114 1.22090 25.50071 86.27347 -268.18012 -822.60695 -1367.19970 -1425.33023 -1407.58482 -1416.88973 -1445.46256 -1480.09916 -1554.41957 -1632.82593 -1786.41393
0.46955 -12.18182 -25.37278 -20.57159 -4.72943 13.96042 37.43711 41.60974 40.84233 39.96496 39.96754 39.99951 40.00000 40.00000 40.00000 40.00000 40.00000 40.00000 40.00000 39.99871 39.39879 38.43767 45.31573 62.97959 78.68265 82.32115 80.50394 79.94961 79.99526 79.96113 79.13461 78.24982 81.75648 92.50608 107.53489 117.04562 120.00142 120.25343 120.22047 119.98256 118.43547 119.77603 127.81658 152.69505 158.22437 162.00971 162.73529 177.05135 182.63178 196.79948 200.69476 199.77717 203.17715 211.26035 227.67337 237.92721 240.64221 241.21013 241.54371 239.32485 238.58851 239.24628 239.35649 240.26591 243.70566 246.28125 244.89488 251.52690 271.90246 285.00570 286.83174 293.27110 297.50600 329.21418 341.98254 359.25129 358.33383 368.50314 416.26647 444.36504 454.44691 468.10497 524.25501 575.63653 609.92756 624.01756 667.02843 682.84123 675.37405 708.18269 684.41426 648.23534 647.58142 644.64981 639.30669 641.40816 620.16051 605.28915 607.31653 638.39992 657.48349 698.33387 703.59511 677.91950 602.47182 469.60175 352.18044 309.63337 306.02638 213.61942 70.83065 14.31474 2.02346 -0.14411 -2.98262 -2.71294 0.57074 1.65117 -5.52038 -21.63025 -29.66911 -9.85077 -5.14944 -26.00656 -25.49098 -15.20881 -1.24678 0.71921 2.00709 1.15449 -5.15215 -18.23217 -23.61986 -20.87641 -14.95721 -6.83025 -1.79336 0.90457 1.40070 1.57204 -5.99993 -27.94882 -111.46601 -217.32148 -176.59186 -55.92186 0.54512 12.17208 5.19292 -5.25690 -128.20165 -199.02643 -278.48513 -374.72265 -489.55004 -646.07584 -910.41454 -1092.48965 -1174.43102 -1198.66760 -1253.58009 -1295.79706 -1259.73915 -1212.16596 -1199.36931 -1238.53030 -1258.55878 -1276.81648 -1267.91773 -1218.00603 -1180.49105 -1121.11580 -1090.03399 -1082.64465 -1094.73875 -1117.83150 -1178.76563 -1109.53782 -780.13854 -458.24645 -209.38123 1.27683 31.68843 24.33090 7.94534 -106.53744 -384.53312 -627.27185 -739.80421 -796.71175 -826.07136 -875.58330 -888.26490 -896.27349 -884.70866 -872.31704 -853.23070 -821.95666 -783.21480 -720.65256 -681.36596 -624.98070 -570.83241 -540.65938 -493.14056 -460.74506 -404.08182 -383.21425 -363.90702 -352.68450 -314.08954 -256.25382 -192.00642 -191.06454 -230.00810 -269.65869 -276.33207 -272.92124 -239.46107 -204.98108 -180.85068 -209.52925 -224.96352 -214.31886 -174.88225 -100.31644 -77.43300 -60.85788 -78.97978 -118.12736 -173.59431 -158.77173 -164.26664 -196.88844 -244.72670 -388.66969 -485.71462 -572.97445 -596.93236 -593.93840 -584.20743 -541.33124 -457.69287 -394.16690 -314.51985 -235.43661 -144.76669 -152.77575 -71.46940 -48.62774 -18.18037 8.89455 3.62747 1.11447 0.18125 0.05156 0.01691 0.00000 0.00000 0.00000 0.00000 -0.04639 -0.69831 -0.11341 24.88166 30.57397 -99.94765 -617.72697 -1084.36670 -1283.70250 -1380.27442 -1447.54627 -1458.35013 -1483.81617 -1516.82748 -1630.81819 -1773.89462
-0.06447 -5.08251 -8.40537 -9.14632 -3.68743 11.58097 34.47057 40.69219 40.66055 39.96658 40.00642 40.00086 40.00000 40.00000 40.00000 40.00000 40.00000 40.00000 40.00000 39.99945 39.99910 38.58077 42.45669 59.98245 79.61355 82.11910 80.19451 79.95592 79.99470 80.00458 79.65307 79.38815 79.11025 80.49691 91.58266 107.33462 119.25447 121.32093 120.17574 119.96062 118.78686 120.59915 127.64593 144.59109 155.01964 158.91792 161.13431 161.87740 172.43578 190.65204 196.76433 198.15014 200.64125 199.43372 210.76913 225.49498 234.37328 231.79523 231.37400 230.36207 234.36829 237.97444 241.81728 241.23984 240.78320 239.19326 238.93920 243.66553 267.99775 294.46727 291.74604 282.74813 297.21163 318.47329 329.64553 331.29187 338.88305 348.08044 409.21266 448.14599 442.50630 449.80925 489.87383 540.87381 566.32803 594.67226 652.85808 715.00189 773.42618 787.29554 740.94303 680.56705 664.56689 627.32923 606.46261 592.79155 591.56014 591.68855 576.55707 551.55127 566.91077 639.56851 652.82249 632.79141 554.77743 419.55105 331.76406 274.91566 233.41811 112.33266 -6.45809 -25.25249 -3.88184 0.35576 0.42299 0.70914 1.62290 1.65904 -2.75596 -13.10418 -9.51526 -9.49299 -5.13387 -6.99684 -11.68206 -6.16812 -0.66704 1.25573 1.26798 1.27558 -1.63408 -4.99334 -10.74402 -26.88125 -28.45325 -11.78512 -2.10628 1.37277 1.49647 0.90021 -4.87533 -48.72939 -105.84383 -154.70263 -142.06316 -52.55055 -6.80286 -12.82381 -21.69085 -30.62484 -77.60780 -165.33573 -327.59574 -400.86802 -552.70610 -753.70961 -940.81590 -1136.24144 -1212.66619 -1264.04885 -1291.87507 -1307.35523 -1275.13282 -1225.80262 -1240.55832 -1269.30273 -1275.70078 -1277.32613 -1247.47336 -1197.95389 -1169.86354 -1149.12911 -1109.97489 -1106.37076 -1120.08377 -1154.75701 -1218.68224 -1084.25318 -822.54419 -460.69080 -190.77168 16.18864 48.71643 20.00065 -39.57320 -160.20102 -377.83199 -638.76044 -743.55196 -805.23422 -847.63752 -881.10154 -887.24130 -886.19047 -883.52690 -877.07258 -872.92979 -841.71042 -812.97592 -744.71197 -668.09153 -625.15958 -575.54063 -543.57522 -515.95638 -462.62632 -411.16858 -371.18379 -361.37124 -349.99732 -330.97773 -282.98085 -231.79567 -222.53274 -232.89368 -273.15217 -294.46126 -294.19137 -262.99305 -248.44521 -223.36315 -264.63667 -288.24373 -263.64407 -223.29496 -193.41908 -206.45413 -231.60074 -192.72068 -343.62742 -325.09159 -374.33865 -382.95712 -399.02068 -499.48282 -529.34317 -622.86719 -636.08405 -646.77235 -643.69565 -647.32972 -610.07319 -580.81956 -549.48139 -490.97919 -430.11106 -268.66122 -227.96205 -162.63146 -71.81473 -9.47029 12.01021 1.43989 -0.14186 -0.18372 0.00135 -0.00000 0.00000 0.00000 0.00000 0.00000 -0.00111 -0.64439 -2.01761 18.86708 57.68783 6.42274 -233.12403 -709.38452 -1251.96797 -1363.96886 -1468.36700 -1478.61406 -1471.97887 -1528.16552 -1612.98216 -1722.91799
