-4886.12848 -4889.65744 -4900.17530 -4894.21060 -4888.69048 -4898.90877 -4883.25743 -4898.79749 -4898.76962 -4892.20878 -4900.50389 -4899.77072 -4878.21931 -4846.30200 -4815.08089 -4533.66105 -4511.39860 -4159.23967 -3647.30266 -3245.40875 -2934.09054 -2148.85153 -2076.68766 -1970.00984 -1587.17132 -885.49470 -591.13948 -419.70402 -362.57882 -279.91560 -208.09162 -169.45851 -129.16081 -106.60512 -60.93357 -35.63121 -22.79103 38.85117 65.08849 92.82119 174.69208 187.32273 315.60454 444.47437 414.94770 366.68652 332.44007 314.40534 290.24435 277.48772 243.82024 231.16487 210.05909 178.87152 179.17625 171.37446 185.10437 209.63537 232.55233 236.79352 235.02252 256.96995 259.71104 267.16917 253.96525 265.95651 259.82000 265.85462 264.91578 280.78068 280.40474 290.28642 310.83206 331.66549 341.59348 381.07531 409.96656 446.33882 475.58874 522.82600 517.11693 576.79477 598.97367 604.70805 648.20344 687.02336 722.03407 775.90541 808.56239 823.58971 772.85722 723.47606 677.22546 629.65485 600.95676 567.96857 529.96802 494.43457 429.04385 421.54263 389.47519 325.64911 267.22489 265.72150 161.16104 129.26452 122.08362 43.76826 -0.37981 -35.25564 -77.83454 -203.07414 -473.22354 -2680.60021 -3978.13551 -4310.57784 -4447.71907 -4527.75222 -4490.95402 -4361.83860 -4214.76186 -2968.50379 -1794.65222 -1317.53187 -1552.49800 -1723.34887 -2202.92958 -2608.01514 -2981.76368 -3195.04869 -3248.98107 -3255.21072 -3275.04418 -3291.81675 -3303.00452 -3301.01940 -3311.42597 -3314.79269 -3331.48517 -3339.17959 -3347.86697 -3349.75569 -3348.22651
-4903.03085 -4903.94030 -4896.62443 -4900.79192 -4896.65382 -4906.84539 -4912.49678 -4899.06923 -4906.04192 -4907.69134 -4898.81342 -4869.67068 -4827.44284 -4687.19541 -4524.11611 -4256.66254 -3787.05509 -3454.54879 -3044.99451 -2563.11837 -2150.77389 -2031.68831 -1996.08199 -1676.47664 -1163.37051 -654.05623 -477.62373 -386.45193 -354.78024 -275.17718 -213.33107 -147.53416 -109.63355 -97.87463 -53.81949 -46.90767 14.53728 106.91297 152.25062 125.30612 196.42001 308.58419 348.58928 428.67671 385.12460 333.08683 312.94288 285.88940 267.74223 261.44049 247.34783 229.90634 204.45008 203.21043 192.42249 201.12572 206.05844 227.88791 234.50225 249.61737 274.19334 273.14172 278.13028 276.11151 276.71045 261.34572 283.16567 269.50259 269.20958 277.89192 286.31483 292.67274 315.13609 323.06339 355.82884 387.81869 404.34923 432.47505 459.45518 502.96622 510.58600 555.20570 584.57373 618.86790 668.10205 685.72163 714.15548 755.05588 794.62940 819.48200 795.98557 737.27747 707.89388 658.55729 626.92326 578.25769 520.18866 492.58096 438.58261 414.89912 357.14507 323.42242 291.44193 268.71855 208.97594 201.73711 142.29546 68.65056 10.23299 -14.26685 -77.77440 -203.93782 -872.93296 -3023.35065 -3868.19836 -4158.82877 -4303.34830 -4343.40846 -4364.36898 -4257.03297 -3752.93897 -2554.24779 -1664.38329 -1358.68760 -1486.28681 -2028.42988 -2312.68458 -2648.85354 -2991.67278 -3184.40114 -3248.82410 -3265.72784 -3289.19535 -3290.64860 -3289.13402 -3300.27648 -3306.47822 -3317.05199 -3317.13325 -3343.61210 -3337.26486 -3342.76673 -3345.67465
-4910.35710 -4907.42464 -4908.35276 -4912.54624 -4914.11959 -4923.27689 -4908.68938 -4919.17635 -4925.37077 -4917.82379 -4890.40257 -4823.90417 -4617.25525 -4570.60274 -4208.59646 -3735.09329 -3450.77020 -3116.63024 -2581.86387 -2344.28468 -1995.62831 -1895.39193 -1816.58591 -1878.13540 -1306.73737 -639.57508 -507.10993 -376.53683 -318.41780 -228.73961 -189.21681 -131.79957 -100.05514 -92.35274 -53.67902 9.34820 72.26249 150.17271 218.54509 188.81218 206.75421 302.74972 358.19993 392.61392 340.11243 320.82037 294.53019 268.10884 252.23697 247.61134 233.30231 240.78230 217.62451 200.66820 211.32009 200.90137 223.29274 237.69709 251.40605 277.99140 292.22509 307.55036 297.58131 292.79031 285.34255 289.94840 281.99887 282.86652 291.61862 291.13971 294.70894 305.65136 311.54688 340.34293 356.47397 379.98176 406.76982 443.02232 462.53756 482.59596 511.32613 562.19638 578.17992 604.82642 649.40113 677.27593 718.37441 773.11591 774.51574 792.64498 773.46142 738.71721 694.94242 648.45207 614.08894 567.56900 532.03652 491.11526 454.58377 401.58364 360.06518 310.43869 271.13772 236.05005 221.58829 203.69180 151.50585 91.92810 34.12499 -5.60921 -120.05398 -366.71557 -1321.71748 -3356.32933 -3833.14311 -4119.67400 -4175.74068 -4199.03678 -4291.46797 -4159.30921 -3539.40316 -1958.56686 -1291.81390 -1242.06338 -1584.53065 -2130.21280 -2438.32594 -2856.72032 -3126.61539 -3231.78784 -3245.36630 -3267.79328 -3266.87168 -3269.13703 -3282.52205 -3298.00708 -3301.55542 -3310.37760 -3314.83452 -3319.37249 -3321.47583 -3333.27270 -3339.81377
-4926.60888 -4917.75101 -4927.69704 -4928.27366 -4931.63155 -4931.64451 -4933.15906 -4937.27681 -4951.40733 -4958.36490 -4914.07250 -4796.06004 -4489.55600 -4138.90185 -3663.86518 -3510.99711 -3302.26944 -3118.18444 -2595.26683 -2287.32208 -2021.88961 -1825.58360 -1789.60792 -1845.73716 -1418.32963 -548.32909 -464.70650 -384.76204 -294.55989 -236.01305 -165.17599 -107.37968 -97.47920 -74.67976 7.51486 14.39470 64.91541 185.50020 283.73767 259.26216 275.27318 368.90573 388.67463 366.78725 312.05030 281.83961 269.54411 249.34200 240.37276 233.84533 228.81519 215.46714 212.55255 208.18278 209.04785 216.83663 232.37806 251.77683 273.35122 284.44501 311.51287 320.00171 315.54643 311.42586 299.95734 297.30813 288.83447 286.65560 290.50900 300.34654 297.19294 305.21584 313.76865 340.19437 357.79062 377.25234 403.77047 438.04118 464.27802 490.80175 509.60085 554.79369 573.68275 615.72656 631.30830 676.58596 708.99737 761.30520 784.79680 791.46848 762.67483 739.33839 691.07794 644.98213 614.83178 573.32282 510.10743 477.57527 453.61429 379.92223 352.35498 337.00336 296.90157 249.46147 219.52696 169.24029 130.10180 59.64988 35.75383 -28.87682 -60.91856 -115.42711 -1561.74312 -2793.32584 -3980.32505 -4092.73279 -4135.75477 -4174.83511 -4138.53233 -4084.18196 -2792.17985 -1323.36295 -1065.08582 -1207.03015 -1713.37375 -2212.14950 -2749.15601 -3020.04175 -3132.14225 -3230.21571 -3245.42596 -3270.77480 -3267.06635 -3269.36941 -3284.52339 -3292.47405 -3291.61164 -3308.86586 -3306.62230 -3317.41896 -3326.18911 -3326.06654 -3324.67386
-4938.83564 -4950.04432 -4947.86871 -4946.99241 -4954.75905 -4958.75257 -4999.15382 -5013.69887 -5029.51585 -5092.98082 -5012.83115 -4854.84269 -4535.09903 -4261.37042 -3823.12825 -3694.04103 -3555.59922 -3241.38128 -2698.23875 -2350.63687 -2056.09356 -1921.79678 -1786.03275 -1733.74603 -1404.25512 -529.82693 -441.02623 -373.05284 -261.34080 -225.43638 -141.33827 -122.99421 -80.33778 0.27307 56.24818 69.81350 92.73281 168.79513 245.33398 324.06006 398.29673 417.83626 370.46782 311.48923 268.37907 249.63761 234.41842 224.14350 234.16247 212.36627 215.45973 207.23333 207.84333 208.88432 208.22145 233.23459 250.29779 300.91960 303.81591 314.03536 324.85697 335.19391 334.22348 341.89126 322.03070 310.01414 301.83315 308.78688 296.58059 290.91416 315.98898 312.17201 314.93269 328.46251 353.14699 388.82969 398.21667 405.18264 440.58981 473.87657 511.95145 539.25507 565.98560 622.37708 629.96842 670.85399 727.26196 748.22300 790.20284 795.69552 780.67301 729.42404 681.81654 644.36995 614.16309 578.11173 524.79259 499.74872 453.13502 447.86750 422.85067 303.92215 243.90954 200.38119 191.66347 123.25114 74.86295 34.03462 26.98056 -22.59957 -64.79654 -102.49842 -1554.87386 -2733.00795 -3954.73403 -3978.52697 -4031.97819 -4091.40055 -4091.46142 -3676.41935 -2097.07844 -814.20266 -744.14420 -1113.08451 -1724.13096 -2245.20646 -2767.45002 -3097.38812 -3218.05950 -3225.61411 -3257.26202 -3265.65642 -3268.02761 -3274.73857 -3282.54165 -3288.36329 -3298.50498 -3296.24997 -3306.99937 -3306.27967 -3316.13105 -3322.53904 -3316.65421
-5006.26135 -5012.75401 -5012.63288 -5025.86612 -5026.93331 -5053.87636 -5083.99408 -5108.18600 -5136.40291 -5149.81814 -5073.89129 -4892.41864 -4684.01894 -4375.82012 -4185.69314 -4170.79160 -4038.22904 -3695.03551 -2919.09107 -2261.39508 -2075.16596 -1975.13192 -1869.56387 -1778.72957 -1049.87799 -562.29998 -470.49975 -385.85585 -262.03403 -199.44815 -150.00486 -129.39994 -46.79959 -3.38052 76.59421 123.06912 124.08419 164.01625 266.48345 321.24984 390.63968 340.36719 279.72656 282.26437 269.04867 225.79934 214.18825 210.93037 202.45301 207.61066 200.85470 196.98612 204.98598 207.75692 217.40974 238.60238 281.05820 321.38422 382.39788 365.61781 381.60882 390.39790 379.90713 372.81129 339.24857 340.05036 332.04837 318.09276 309.01077 297.12188 309.57161 314.82832 324.92642 337.41410 342.44772 369.32075 404.27190 412.32127 463.93531 474.07136 521.95913 548.56511 576.51079 599.76840 649.38562 667.02589 718.57582 751.74098 773.91767 767.43284 759.07051 714.84027 693.43110 652.01826 603.10182 559.75541 532.27058 510.36485 483.18117 428.67098 369.16010 300.35005 265.97769 219.46729 183.18619 121.94971 56.17056 19.62006 -2.08399 -49.75575 -85.43988 -175.32013 -1119.84956 -2930.01340 -4176.23974 -4092.51929 -3992.32638 -3964.34739 -3794.96910 -2702.28497 -847.66546 -634.63584 -770.09767 -1033.75273 -2127.27214 -2495.61806 -2883.84502 -3146.98245 -3195.92007 -3232.10468 -3240.08504 -3254.68897 -3254.85467 -3280.64606 -3277.26326 -3290.51945 -3289.18293 -3296.03938 -3295.74053 -3306.64907 -3318.86873 -3312.56408 -3321.19678
-5185.25998 -5175.85243 -5165.33870 -5156.63591 -5156.28443 -5152.22593 -5152.09614 -5103.51728 -5079.10155 -5062.82646 -4938.02537 -4776.89548 -4747.29864 -4638.64427 -4667.85180 -4630.58714 -4354.58952 -4089.54259 -3256.54556 -2385.61303 -1878.34172 -1865.07500 -1756.96869 -1530.37510 -875.81919 -580.82625 -453.66320 -386.96669 -297.38645 -208.29229 -138.97152 -117.05923 -32.12815 -6.95930 36.79550 134.20090 209.78749 252.72911 253.41712 252.49544 307.67171 318.31675 289.69664 240.70318 237.37839 230.87683 188.79617 187.79480 175.71039 180.02697 177.99543 195.77463 190.04697 190.43323 203.77405 244.02491 262.97452 326.57470 378.18059 424.49064 448.79464 430.16921 446.41480 416.16930 359.94139 341.79930 336.31870 331.82297 321.43803 317.76059 320.03861 316.72723 327.59151 343.13214 355.19924 360.24481 383.29074 407.37645 430.61620 469.08661 506.05362 553.38273 582.43074 585.88615 626.42966 665.25657 710.40891 727.01701 742.67150 750.25794 725.91071 705.75874 688.68537 654.10713 607.83582 555.37317 523.79291 476.49363 464.17456 377.17694 317.49924 310.58917 232.07886 199.68031 167.21275 122.00173 81.63276 22.67640 -22.36994 -117.36251 -181.50169 -206.61640 -712.86698 -3046.42853 -4079.53059 -3957.00151 -3963.49366 -3915.38995 -3265.03176 -1721.71524 -697.76046 -457.40961 -912.61912 -1393.86118 -2022.07295 -2578.83990 -2861.55658 -3148.28821 -3225.46614 -3240.17087 -3234.14867 -3261.82384 -3267.12977 -3273.12230 -3265.46308 -3282.06052 -3288.82301 -3294.64976 -3305.37087 -3309.18000 -3309.90426 -3316.65053 -3315.25535
-5332.82769 -5323.91658 -5193.60369 -5131.40917 -5097.00120 -5037.41564 -4975.60317 -4926.97402 -4892.30266 -4887.73534 -4872.39717 -4864.96432 -4848.68235 -4867.21614 -4905.53214 -4903.24066 -4727.57527 -4431.01620 -3832.26935 -2687.88685 -1512.74233 -1471.23621 -1478.87878 -1354.04162 -801.96704 -514.40602 -433.33277 -365.95949 -291.87543 -214.81184 -153.77000 -146.30365 -11.95231 20.51107 81.65323 179.51276 265.61499 332.28555 240.69402 205.31590 239.93401 288.77882 252.74768 218.72255 203.73066 191.75999 162.57822 181.35628 158.87384 154.15358 166.76186 157.24690 173.51391 192.00152 207.92188 245.20330 256.95856 305.43168 349.68292 444.35856 481.52314 483.06512 483.29061 431.36871 384.60661 376.39902 343.04739 331.22581 335.58967 326.38577 327.86083 328.99133 330.22893 337.77332 354.33169 363.92543 393.11358 411.51025 435.47956 467.14691 497.03458 539.20149 569.68247 600.86063 622.18895 643.22476 708.67686 709.03110 723.99633 728.98377 717.37753 671.72447 661.30155 626.90327 574.56228 540.80544 506.56538 444.58658 432.06076 364.48507 322.99298 312.25919 249.93421 176.12387 152.24610 110.40965 51.26704 -3.93514 -26.95804 -144.97931 -174.58379 -352.09508 -1000.21009 -2526.58859 -4142.59134 -3947.59793 -3898.97725 -3854.22827 -2935.18697 -1176.00107 -400.72512 -487.88815 -927.13762 -1580.89265 -2164.18310 -2676.48486 -2898.05313 -3122.94063 -3211.89279 -3223.82534 -3249.85893 -3245.59495 -3261.44288 -3271.10472 -3267.02059 -3274.48219 -3283.20190 -3290.98695 -3299.82484 -3294.67152 -3309.03940 -3313.76889 -3314.68762
-5036.47089 -5027.37475 -5017.21754 -4943.33187 -4943.36871 -4871.85642 -4844.93108 -4861.98205 -4862.63227 -4891.75342 -4926.26017 -4946.03656 -4937.24415 -4956.07411 -4953.72255 -4937.57646 -4856.26773 -4597.97378 -4176.52583 -2823.84201 -1801.00700 -1299.79647 -1214.21208 -941.69719 -644.63171 -494.81817 -416.45371 -345.25841 -314.84363 -207.89008 -167.39737 -122.66559 -50.10459 4.97825 59.91389 151.55999 272.71162 308.00545 192.67278 158.06193 166.10673 221.80617 199.09177 178.29680 156.37773 142.72675 133.28722 136.40483 143.58839 138.07739 145.76630 154.92534 159.60876 179.44758 191.89436 220.49731 242.66251 277.11403 334.59382 419.18032 476.75166 517.90546 499.35989 447.42624 396.12231 392.47092 377.47436 355.39188 351.98885 336.36648 335.47859 327.33494 339.28427 343.74149 349.49231 364.27981 382.53062 407.51626 441.33660 455.60408 492.96311 516.16294 562.98214 604.80484 616.36298 655.75352 675.34079 698.29866 707.29391 689.98861 671.94950 680.42931 640.57481 621.57066 568.86300 534.81222 504.56790 454.60446 415.53516 370.85030 336.81660 296.08254 240.84562 178.17335 130.84963 101.62774 40.31535 -4.71750 -53.71919 -138.72538 -190.26025 -505.05713 -724.98546 -2175.24994 -4221.92221 -4298.90161 -3952.91201 -3554.90396 -2372.96639 -498.23035 -293.70631 -472.07013 -993.00752 -1817.65990 -2269.06926 -2741.23649 -2880.89200 -3086.38281 -3208.99133 -3225.80474 -3236.99748 -3252.88960 -3250.88836 -3258.93950 -3267.95676 -3273.19695 -3282.14883 -3292.44336 -3300.38639 -3289.75146 -3307.50640 -3317.81265 -3317.09998
-4836.26171 -4834.24561 -4891.77172 -4881.82930 -4876.97556 -4887.79606 -4885.71491 -4911.57873 -4931.40398 -4962.73848 -4968.42081 -4970.47969 -4979.24413 -4971.78049 -4959.27950 -4966.17828 -4945.54408 -4805.99903 -4488.85817 -3416.77437 -2137.90293 -1130.20463 -1012.03540 -794.45498 -615.34568 -500.49020 -429.45583 -375.08783 -327.82627 -278.46127 -212.88660 -162.03740 -48.45686 22.70823 124.72633 172.76393 161.22145 207.11576 201.58512 129.63101 123.14306 189.55077 152.12736 144.87601 131.17350 113.62342 121.05718 124.65023 123.29683 138.77836 144.06503 154.25076 160.23677 170.63194 174.34604 208.34490 231.78804 260.81950 274.63041 378.49469 414.46905 499.93355 529.22013 473.13959 429.08974 405.59059 385.94740 394.05005 356.12710 346.92252 351.72098 331.42619 333.65244 344.02582 349.87133 365.56167 391.89618 393.71272 421.94534 455.51954 498.03012 527.38792 549.78939 586.50614 617.63026 657.58957 666.12910 662.28740 666.32972 657.83001 655.16866 636.50205 610.79584 583.40501 570.48004 547.96828 480.83128 420.20487 398.11816 333.11958 309.78900 258.49155 232.01978 189.10241 145.24433 91.59906 65.90464 -0.50021 -63.47849 -146.73501 -213.75118 -377.24445 -1048.16584 -2027.55395 -3903.48199 -4812.74411 -4302.75970 -3287.32568 -1710.53608 -245.41889 -215.85689 -428.32614 -766.22835 -1697.29931 -2149.87503 -2575.71912 -2968.05636 -3114.47862 -3213.42861 -3225.93774 -3241.17854 -3246.85659 -3255.84053 -3254.64661 -3259.30582 -3262.69763 -3276.40151 -3284.67391 -3299.94725 -3289.91587 -3318.03661 -3313.63991 -3311.31620
-4936.92792 -4931.39695 -4933.27507 -4929.94328 -4961.25301 -4978.50838 -4971.20076 -4984.23211 -4985.82172 -4986.06976 -4992.80626 -4983.09881 -4986.28923 -4982.33212 -4983.18995 -4986.32035 -4976.32567 -4921.97797 -4632.61198 -3812.46973 -2937.33574 -1572.32107 -1045.25590 -855.36327 -599.80887 -504.19591 -440.67863 -386.97352 -361.35329 -298.58884 -243.05549 -189.20842 -108.89614 -60.55759 93.52018 120.04478 74.03571 92.23827 117.72174 89.02976 99.06326 117.79751 112.12583 91.65686 87.53520 85.92253 90.04526 102.20555 100.49767 103.37619 126.53685 132.78139 141.16561 146.99718 176.10022 197.19482 231.04098 267.78457 291.38274 332.61298 455.38488 511.52564 566.49233 541.72242 499.21328 447.61720 426.78704 398.44139 376.37313 357.52985 355.28929 342.31408 333.73519 345.04037 353.94615 356.58448 394.80011 411.51278 439.52217 446.49556 490.76946 525.25051 538.13062 586.69113 610.62506 635.42456 658.00900 667.69946 650.96949 641.31990 630.98568 607.03542 594.00275 566.98477 518.53196 490.65768 440.38585 406.39189 367.57692 320.42917 271.79227 245.24058 205.51444 158.95306 93.92041 50.05949 32.79411 -16.97002 -61.01963 -110.34964 -233.79150 -735.30122 -1378.30704 -3062.28935 -4434.38779 -4763.41247 -4292.09956 -2758.46060 -956.79333 -370.66731 -283.68194 -733.68533 -1109.20924 -1824.92800 -2398.21655 -2727.28804 -3019.73772 -3190.32724 -3198.59982 -3231.85265 -3248.06551 -3248.77792 -3249.22172 -3258.25406 -3261.70758 -3277.05575 -3280.30975 -3288.25991 -3302.81087 -3296.74079 -3311.26077 -3312.18158 -3323.19141
-4993.03660 -4987.54363 -4988.99798 -4984.63566 -4993.06964 -4997.39714 -4991.27080 -4993.40151 -4993.83392 -4990.65844 -4993.29237 -5003.36932 -5003.38296 -4999.84186 -4991.85091 -4996.64632 -4969.85429 -4925.20370 -4575.38404 -4192.29330 -2857.10892 -1548.29775 -1047.63916 -847.68365 -582.21127 -550.05550 -487.54936 -427.05972 -378.05829 -341.14729 -280.39085 -207.13996 -138.00675 -109.29613 -54.10233 -32.29936 -22.47841 21.60733 38.67677 27.09652 37.08124 32.40393 38.78718 57.09991 49.93480 68.63190 69.44132 80.36311 90.93638 98.25267 89.21585 126.13225 123.00975 142.60254 170.19699 203.04290 221.47976 251.18178 283.35429 313.40534 390.43022 435.06738 532.80571 583.61542 528.39307 470.38897 431.31397 420.80267 391.52293 393.35342 373.55764 361.26832 345.34351 342.25191 348.54503 369.05782 381.27672 401.59853 433.64764 443.16499 481.48471 503.06272 528.88495 562.38259 613.47141 620.39632 640.45437 655.46786 634.27565 622.54695 578.65156 570.53681 548.74669 532.19317 521.20096 465.71646 438.11105 395.31906 352.60847 297.34429 242.31024 233.88802 191.96638 147.14103 112.92375 55.02616 -6.09540 -50.86202 -57.49521 -135.77039 -264.43370 -891.24457 -1788.09463 -2948.18078 -4249.40281 -4716.72452 -3868.78540 -2088.92553 -999.01115 -203.96637 -448.76022 -1064.63804 -1488.97707 -1982.88211 -2428.64265 -2894.56813 -3169.74648 -3195.36761 -3207.96926 -3231.09350 -3237.77957 -3249.62467 -3250.45797 -3250.59214 -3271.53226 -3270.59940 -3277.81413 -3289.59834 -3291.04118 -3295.58529 -3292.94647 -3316.81011 -3314.74820
-5003.01875 -5000.18634 -5000.13863 -5008.54393 -5006.03456 -5010.45759 -5007.67960 -5009.96547 -5011.96426 -4999.83228 -5002.16422 -5011.95450 -5008.57827 -5002.67490 -4996.83254 -5002.44838 -4981.11859 -4787.07052 -4508.54250 -3863.48496 -2698.57665 -1447.85708 -1092.19001 -884.77359 -717.10395 -662.32011 -483.21271 -443.90847 -398.59978 -360.29758 -325.29511 -251.61454 -183.90103 -145.44783 -95.53337 -72.11139 -56.47517 -32.35286 -23.87940 -3.86467 9.14967 -4.79882 6.01285 38.77208 36.93405 35.30447 44.60261 67.53345 60.58564 87.06859 92.85118 103.19012 111.72400 134.88142 176.06943 187.96809 202.24343 252.44255 293.53119 310.95354 371.56194 409.37596 477.30647 576.85641 553.22994 512.54237 475.63374 458.53241 439.95188 426.54252 398.29732 367.47912 349.25973 339.83269 352.24140 348.56049 374.40735 401.05935 421.39939 450.99299 475.22992 494.00943 532.10920 558.38999 585.33807 599.36574 603.14435 621.30385 621.83227 601.06158 567.61688 552.72033 524.41583 484.59083 488.72684 455.52273 416.07226 361.93926 322.15523 294.70319 236.86128 205.93396 154.44436 123.30456 94.59858 38.43969 5.75733 -64.59409 -82.37609 -184.59104 -324.84730 -728.41124 -2272.17051 -4045.79160 -4808.22361 -4678.58427 -3675.63924 -2510.84572 -616.70733 -155.88353 -467.58939 -970.57055 -1792.05831 -2350.48495 -2870.21177 -3002.25675 -3188.42728 -3204.00992 -3220.67565 -3237.96332 -3246.72636 -3257.38959 -3242.24312 -3276.92800 -3269.03336 -3269.49909 -3283.14059 -3292.84257 -3302.61732 -3296.77962 -3303.89596 -3304.56907 -3321.32953
-5012.80582 -5019.76376 -5013.14189 -5019.10326 -5026.73223 -5028.94462 -5010.49946 -5024.93651 -5017.77303 -5019.91506 -5018.08211 -5014.01861 -5021.16496 -5016.46675 -5009.12647 -5005.71023 -4969.73354 -4674.82749 -4258.17736 -3446.39368 -2184.94976 -1477.64210 -1075.49270 -996.51381 -889.50672 -683.96830 -527.59709 -495.70232 -423.79573 -397.10541 -310.27217 -270.28304 -249.49009 -189.14214 -159.27141 -111.73418 -90.78491 -74.79666 -57.05053 -32.36068 -28.76340 -24.37911 -29.91401 -0.04281 -2.74578 25.52512 32.38983 24.00333 45.36969 63.29502 65.44646 86.79882 110.84423 136.74653 172.44393 183.88234 193.79394 243.11683 276.83647 331.81027 345.65827 419.60049 476.55302 560.28263 586.96488 561.57914 548.58194 528.73311 510.41876 451.19923 434.92154 378.08257 360.85825 340.18437 345.98422 354.68848 366.95790 382.74659 409.68494 442.04211 454.81255 486.90957 523.32575 536.24123 567.49202 592.43125 601.42133 613.73660 599.29213 567.32963 559.48191 541.59576 511.49994 463.51252 399.01044 394.63318 386.01210 354.98189 299.26814 250.38665 238.87353 175.67724 114.32274 108.95838 65.40039 25.73397 -22.99532 -81.93042 -112.89146 -177.62875 -313.55488 -859.35482 -1767.98037 -3507.61055 -4396.75240 -4596.29572 -4047.06540 -2864.65580 -564.50845 -152.63005 -346.14801 -1023.89908 -1757.64979 -2249.33771 -2863.64072 -3046.46105 -3195.71634 -3208.85529 -3220.64920 -3239.95433 -3237.62661 -3246.93422 -3246.84560 -3262.27257 -3270.07334 -3274.72478 -3277.53518 -3283.70141 -3284.29233 -3299.16091 -3299.96579 -3326.84370 -3310.00108
-5025.06985 -5031.91439 -5040.75818 -5025.08450 -5033.28996 -5033.82416 -5032.88075 -5037.98637 -5041.79749 -5029.75138 -5027.41423 -5030.96235 -5025.03256 -5027.87067 -5016.61506 -4999.38059 -4908.85909 -4665.57207 -3710.19282 -2804.56817 -2016.14096 -1293.06164 -1118.43942 -1041.20178 -992.29543 -835.83524 -681.53348 -515.48242 -460.09574 -431.66299 -361.87217 -333.42489 -285.90987 -240.32329 -177.62306 -145.87107 -115.25718 -97.84920 -69.59419 -66.80197 -69.18973 -59.11618 -43.83499 -33.49597 -25.23537 -8.17674 0.96727 8.66330 32.89454 38.36766 63.09077 71.00591 111.27580 106.90376 152.32752 175.88729 194.21027 220.90907 270.84390 313.33131 325.68673 394.53942 444.20086 490.72382 541.36436 524.58806 528.96088 563.21086 535.21945 507.25444 439.59561 369.86393 353.53321 333.92204 343.10281 346.40149 364.54337 384.60433 405.00142 433.90531 457.11142 485.13428 485.58094 533.03042 559.83731 573.46218 587.90212 589.15335 565.37294 535.79072 536.88005 496.16619 486.16899 468.86713 392.10862 364.65877 333.81077 315.65172 274.90834 235.28848 182.20789 148.26710 116.81234 74.88596 50.91405 -14.03357 -61.95468 -67.38318 -122.55943 -184.43080 -338.99412 -977.61949 -1591.58463 -2710.67182 -4758.85796 -4775.21902 -4380.12472 -2831.03202 -1418.34733 -470.27726 -641.22523 -1365.70840 -1898.10504 -2558.57581 -3004.13004 -3185.80560 -3197.71071 -3220.14267 -3235.31873 -3238.26122 -3239.81136 -3244.43952 -3258.84495 -3262.39330 -3262.05612 -3271.00811 -3280.12607 -3283.17774 -3287.99065 -3299.31928 -3311.50306 -3314.35623 -3316.53631
-5040.25046 -5038.30242 -5035.14532 -5040.71087 -5037.32525 -5039.83551 -5036.77329 -5039.57087 -5032.36168 -5028.20337 -5035.29387 -5037.77927 -5030.24116 -5029.89635 -5020.82037 -4995.90321 -4889.21142 -4454.29046 -3468.59221 -2665.20862 -1792.80982 -1358.04366 -1210.13445 -1070.96475 -997.57782 -854.52611 -779.37849 -698.13391 -542.19481 -448.89396 -412.44176 -371.03400 -325.66741 -277.93449 -216.64464 -152.25642 -141.78532 -120.73394 -101.47616 -113.86073 -115.10589 -99.39999 -68.42019 -37.91175 -39.11654 -20.19313 -10.49472 3.14039 14.73185 21.41335 43.11100 57.19374 84.86949 116.97866 147.98557 161.17430 205.84476 226.95176 252.16376 288.99636 322.86070 338.78935 406.56015 426.07787 461.03491 474.43410 456.83199 433.50817 463.41304 437.85464 406.75053 369.20401 348.19905 337.75821 346.43344 327.92198 361.63571 368.99714 384.93369 418.62181 442.47699 481.68063 489.85772 525.53010 543.34609 548.03915 556.37280 539.26924 527.69675 526.03525 512.36231 476.04764 447.16952 433.30556 396.55565 374.52026 312.10769 292.78929 254.98755 228.72944 192.35726 134.72089 120.40570 63.93496 10.30672 -55.72655 -76.93764 -113.04011 -168.70157 -186.01114 -428.68434 -894.52783 -1615.81852 -3741.59764 -5051.33808 -4978.13584 -4769.61067 -4037.64510 -2004.22339 -1474.69588 -1667.51217 -1847.48469 -2517.30208 -2615.68300 -3026.81441 -3187.39692 -3207.99950 -3221.58219 -3230.01140 -3240.45438 -3237.99480 -3245.31207 -3257.71671 -3256.49860 -3261.40800 -3278.79567 -3275.97497 -3291.47783 -3291.52692 -3292.45571 -3312.57862 -3313.77520 -3316.96220
-5051.47164 -5042.01288 -5045.21934 -5047.14491 -5061.60896 -5050.60786 -5044.36671 -5045.77552 -5047.97871 -5043.56765 -5040.22477 -5039.62438 -5043.18343 -5043.63711 -5030.78318 -5008.29550 -4871.47987 -4546.99511 -3439.46699 -2898.80442 -1925.53262 -1509.58210 -1212.29457 -1093.78034 -1006.19686 -962.14972 -880.99954 -815.56731 -721.80007 -621.52290 -521.24726 -441.39066 -340.31286 -297.02106 -242.21439 -202.20014 -167.72535 -158.17883 -146.88264 -136.64339 -134.30607 -133.74958 -121.41775 -80.86270 -57.31678 -37.95443 -14.80868 -8.30939 -2.19345 32.01298 35.66282 61.66337 84.71712 114.38466 128.12118 156.55069 195.78018 219.53717 234.66608 259.52338 311.46976 323.09016 350.18009 396.88883 401.03299 392.24585 409.57220 411.86989 401.54495 392.71576 388.51713 356.50364 328.77004 330.54131 331.36928 344.36187 345.59572 369.52214 389.33515 410.01101 432.42305 457.93990 488.58076 518.96074 534.64942 546.67938 539.90485 522.58269 475.51690 504.89796 456.63185 451.10063 399.19802 382.43138 355.60170 331.22639 288.46290 276.55125 247.57077 194.39493 169.48436 128.24900 87.28305 53.38111 2.33096 -55.84368 -75.59188 -144.95544 -183.64654 -295.06980 -535.25018 -1360.21542 -2582.19899 -4719.99037 -5084.08247 -4969.32612 -4832.98728 -4448.06042 -3973.46708 -2805.22078 -2841.95822 -2808.29960 -2704.86975 -2996.76284 -3110.78968 -3184.18131 -3212.87379 -3219.35400 -3234.03878 -3233.35956 -3247.19844 -3249.61390 -3258.31644 -3268.53440 -3257.72683 -3276.49947 -3285.49722 -3291.34029 -3298.06298 -3288.34189 -3314.29599 -3322.55288 -3316.79358
-5047.46703 -5060.28489 -5054.30864 -5051.24384 -5066.80255 -5062.70556 -5051.79598 -5052.40591 -5043.97514 -5052.13166 -5051.21727 -5052.74081 -5045.38330 -5041.70585 -5038.64989 -5025.93115 -4944.50706 -4821.16667 -4290.27091 -3370.28800 -2259.67426 -1664.79300 -1352.69467 -1173.60044 -1110.04559 -1035.73125 -962.31659 -932.67802 -850.29539 -732.21873 -592.29463 -482.70589 -406.36387 -328.53200 -302.63049 -250.92575 -221.76581 -218.09885 -203.01899 -171.30734 -147.74635 -138.02326 -115.93243 -102.19981 -83.94288 -61.12311 -31.63296 -19.29863 -6.81825 4.34981 37.55958 55.07052 82.53986 95.79984 126.90085 163.11492 195.38157 228.01359 242.98429 268.73452 316.68411 322.98414 332.99219 367.83122 367.65943 337.73790 340.11352 349.58403 364.15830 356.89790 342.67355 325.41035 313.46760 320.97402 317.92390 329.31763 336.29554 364.00421 378.69950 382.58659 422.78363 455.17600 466.56692 476.79626 515.79874 531.66157 533.99507 491.80068 469.25646 459.95679 446.53402 417.20933 389.27172 360.84283 331.66425 308.58366 275.31449 231.80302 210.30017 154.04180 140.58906 122.70582 77.62775 47.67206 -2.93979 -42.66014 -100.09790 -175.57470 -275.97511 -447.52755 -937.16281 -1426.11441 -3635.01973 -4712.92185 -4986.07204 -4905.86270 -4866.08449 -4853.52837 -4644.10066 -4035.17504 -3330.70344 -3230.40588 -3146.40018 -3134.55625 -3170.80418 -3205.23155 -3219.66260 -3216.50056 -3233.56071 -3237.58268 -3245.44538 -3251.42735 -3260.33235 -3262.21279 -3273.88863 -3270.12262 -3281.06059 -3285.63060 -3302.38459 -3300.63585 -3314.61270 -3319.35391 -3322.86205
-5058.33165 -5068.15239 -5061.48803 -5057.27408 -5055.69641 -5062.35289 -5057.35562 -5062.12320 -5059.07690 -5057.90258 -5061.98494 -5054.65249 -5053.76906 -5058.67561 -5043.12261 -5047.02133 -5007.31170 -4909.42559 -4596.53482 -4218.11165 -3230.31257 -2628.28086 -2036.22240 -1317.82129 -1211.01331 -1086.04295 -977.84816 -983.70566 -962.12390 -873.95541 -761.97966 -593.46499 -469.30415 -387.85549 -344.75791 -340.45795 -293.40666 -280.78776 -215.23177 -192.90855 -175.59565 -170.27000 -142.15200 -122.05895 -101.24012 -85.92178 -59.99058 -20.36740 -14.02852 6.78374 27.36283 39.79630 81.89201 86.45051 112.92970 166.20181 179.48428 223.72851 260.33374 292.59078 309.75807 301.35029 304.63929 318.57867 322.24457 318.10543 304.97320 298.72015 319.33543 325.95914 322.24106 307.36000 301.92885 287.41959 295.42963 307.28195 327.41577 348.79591 383.79409 384.48224 404.98690 421.48536 458.72259 480.45488 493.25555 503.32807 499.75411 499.41340 461.11445 421.05965 405.48641 393.49367 367.26804 324.08651 297.50408 279.27750 234.99688 203.27989 159.89724 130.01062 118.62947 89.18333 38.11078 9.05612 -60.40906 -80.25538 -133.16108 -196.02028 -466.48969 -638.85189 -1094.49356 -1694.28680 -4049.28894 -4807.77243 -4900.07922 -4906.66608 -4939.17760 -4942.20261 -4872.94273 -4318.07401 -3861.55338 -3527.62208 -3254.00856 -3175.38761 -3192.05250 -3204.84202 -3217.55084 -3225.61858 -3244.51520 -3244.69804 -3246.53526 -3248.10572 -3255.26614 -3267.63289 -3264.68656 -3276.14811 -3280.07548 -3281.99698 -3292.44413 -3298.52176 -3307.72082 -3320.46261 -3322.57146
-5070.53568 -5072.42878 -5073.29545 -5072.98465 -5072.61823 -5071.72193 -5079.60495 -5073.39635 -5074.62423 -5068.06608 -5071.15435 -5061.79159 -5064.91590 -5070.08291 -5062.17737 -5055.12251 -5037.61022 -5017.58864 -4955.84498 -4737.48326 -4073.64440 -3165.62997 -2353.54520 -1721.82165 -1358.98258 -1125.57032 -1076.16852 -1033.93753 -983.76296 -946.71207 -865.08670 -716.09772 -675.74990 -504.25082 -417.30483 -393.92349 -360.73077 -291.12235 -254.99455 -234.85895 -220.49594 -175.42725 -164.29787 -139.25497 -117.10354 -96.43391 -89.31902 -34.55115 -24.08683 2.30214 25.77518 36.46007 79.39164 99.50124 136.75346 169.75353 203.52430 261.41029 312.96502 311.19895 307.80460 307.91922 283.43224 291.22600 284.35526 279.97330 285.23350 297.76270 297.91029 288.76615 293.08503 278.32078 269.27881 280.04507 279.67784 307.52712 320.49668 339.11221 343.50691 380.47436 392.33279 428.85209 429.48423 466.52257 489.80885 494.06828 491.12501 475.49516 416.14928 399.15236 360.13741 357.30260 333.32112 296.41733 252.16268 225.02143 218.90328 172.36390 133.50166 126.23990 85.18662 66.01606 27.49442 -24.19023 -79.43290 -123.33481 -184.73686 -235.16260 -551.31263 -812.19843 -1387.00706 -2594.05184 -4634.06623 -4683.51596 -4772.55492 -4862.19713 -4951.87963 -4990.33287 -4956.69972 -4768.62114 -4092.31522 -3455.95571 -3269.63885 -3209.01725 -3192.93461 -3198.58837 -3207.02379 -3230.40612 -3238.51464 -3238.65415 -3237.74571 -3264.03448 -3258.08559 -3254.59079 -3269.35296 -3267.75122 -3278.36808 -3290.67803 -3298.81937 -3298.41919 -3309.33982 -3320.72440 -3325.35545
-5079.41295 -5075.65443 -5085.83539 -5078.61813 -5078.14367 -5077.21601 -5082.99477 -5079.23021 -5073.90326 -5083.44013 -5074.00856 -5077.15839 -5077.35267 -5056.01086 -5066.68105 -5063.63605 -5058.74270 -5045.73463 -4990.24269 -4769.83900 -4573.56277 -3800.84561 -2752.44683 -1920.71962 -1319.89701 -1191.24193 -1132.77899 -1126.97756 -1114.71662 -1026.87529 -958.65338 -908.07574 -827.17292 -649.09966 -508.50577 -456.47187 -415.04628 -331.37275 -318.20253 -260.26881 -231.55546 -208.67443 -196.43417 -174.64306 -131.19008 -100.51417 -89.16232 -37.67556 -24.39604 0.60105 23.58030 29.26128 60.02904 89.11538 130.41430 204.63066 268.81976 326.03443 332.52205 345.56572 314.56718 289.78109 271.60628 261.84986 274.80914 280.61534 284.99278 289.32949 278.37391 283.16448 264.88590 265.49760 266.59655 272.08949 266.58598 288.37511 312.15602 318.05761 327.57837 355.86089 387.74324 410.26642 435.79832 433.64134 470.28895 483.54596 488.83543 474.84726 447.63258 436.36641 451.33450 377.47095 274.46125 254.68141 232.95979 178.03423 137.71614 133.11719 82.06271 90.28166 61.48760 37.99593 -5.29437 -57.62775 -72.20737 -128.02268 -177.08931 -292.21260 -684.12854 -914.76437 -1375.31098 -3129.26680 -4565.00505 -4704.30376 -4752.53286 -4826.33216 -4953.82348 -4988.30390 -4974.59214 -4725.58264 -3894.83211 -3483.67105 -3254.69190 -3216.32651 -3201.46061 -3197.73662 -3215.53718 -3222.60525 -3237.50772 -3253.28030 -3249.05200 -3254.85490 -3261.21962 -3272.15777 -3271.21728 -3274.59021 -3288.68226 -3288.93886 -3295.57867 -3306.85767 -3310.75072 -3320.81129 -3325.17780
-5089.58045 -5086.21720 -5082.05755 -5083.68297 -5086.97471 -5088.15439 -5084.69148 -5079.98244 -5079.09370 -5076.86644 -5076.29676 -5075.10934 -5072.79506 -5079.19836 -5075.36130 -5071.13717 -5068.24971 -5062.67577 -5053.04477 -4971.39233 -4842.79070 -4069.51627 -2956.19713 -2087.11357 -1473.07624 -1298.04885 -1246.87404 -1220.07549 -1202.10547 -1147.92057 -1106.41798 -1130.05419 -1013.54792 -880.05051 -676.34327 -575.48774 -460.55957 -432.53801 -351.60534 -287.56778 -255.03513 -256.00521 -207.20268 -183.54512 -146.35101 -119.92448 -88.24341 -55.80106 -30.60257 -8.81862 16.60930 29.79996 81.84159 114.60066 156.99448 225.82660 250.07312 378.18832 404.89370 354.30881 311.00339 269.53838 251.50914 248.19737 257.77941 251.80724 255.43796 262.54241 275.41624 250.55437 261.69841 248.39169 256.45461 249.09733 265.83506 277.40091 296.63038 303.80283 331.68050 337.26965 363.35215 381.91907 408.33381 424.43054 450.01111 479.30027 479.03846 463.20420 457.70325 596.87570 660.25205 491.46137 241.45859 225.43601 196.95045 156.01776 123.94876 95.97643 57.26259 50.53297 9.65047 -0.93640 -46.94599 -64.52371 -101.89291 -174.49985 -279.42882 -372.35035 -591.54914 -1186.12238 -1877.07748 -3406.19185 -4214.40277 -4650.84707 -4772.88117 -4826.92365 -4899.34355 -4977.12970 -4955.25747 -4780.07125 -3967.48444 -3396.51096 -3230.57461 -3216.89242 -3188.64736 -3187.06964 -3205.70320 -3224.63541 -3245.52507 -3252.05028 -3245.96679 -3261.29611 -3261.33250 -3274.63767 -3269.40390 -3285.39139 -3278.42587 -3292.54624 -3295.85189 -3306.29079 -3318.27967 -3312.49996 -3322.50739
-5099.20170 -5097.19073 -5087.97821 -5096.38445 -5089.95622 -5087.94809 -5085.20599 -5086.94658 -5088.72071 -5084.16426 -5089.19062 -5088.24348 -5086.16860 -5083.51528 -5085.76343 -5071.64738 -5071.56812 -5070.45508 -5060.25516 -5035.55550 -4709.88485 -4206.01788 -3048.98817 -2153.99076 -1478.59770 -1319.89473 -1265.40900 -1258.38492 -1244.78569 -1282.08537 -1221.08736 -1303.22710 -1179.60466 -1001.49170 -817.71506 -690.73221 -557.34947 -533.84821 -380.94489 -338.30344 -314.61843 -290.06179 -236.68847 -201.49670 -159.04185 -130.97529 -96.44095 -66.47839 -62.37646 -16.38111 10.79949 24.82008 86.67195 138.25147 211.08322 282.90026 326.26400 392.50737 366.54840 306.44654 279.15894 251.33237 244.79610 235.55175 232.00605 244.77293 248.17167 241.84308 235.18838 239.05216 242.79276 255.77354 231.53068 250.15598 250.71882 267.34378 259.95542 295.10537 306.66842 320.66773 337.04973 364.04519 376.49132 429.42390 448.65739 462.44192 459.74797 445.08676 405.24033 570.32085 642.82945 353.40627 226.81333 187.64709 180.85586 145.92747 109.01389 85.69921 68.61873 11.30166 -37.60727 -56.25366 -64.03734 -90.18307 -133.35636 -283.95942 -448.68610 -583.82781 -741.93059 -1084.31933 -1708.72391 -2922.61960 -3959.12310 -4346.15322 -4711.86952 -4798.02923 -4879.91882 -4918.77348 -4775.55258 -4397.25079 -3783.57630 -3399.21133 -3243.97483 -3186.54490 -3169.91243 -3179.37485 -3202.77711 -3220.76107 -3243.59580 -3254.94722 -3255.83455 -3267.69167 -3264.68113 -3276.72998 -3275.12214 -3277.43595 -3281.36030 -3284.54431 -3293.76484 -3308.67788 -3314.10674 -3320.51758 -3321.95280
-5101.88181 -5099.58758 -5104.19240 -5097.70388 -5093.56872 -5098.71535 -5089.95999 -5091.78028 -5097.02103 -5096.00430 -5089.92985 -5094.14540 -5083.50185 -5095.08879 -5084.05964 -5089.26454 -5085.83510 -5074.47909 -5066.71050 -5020.17792 -4515.34575 -4124.27271 -2965.18091 -2066.02715 -1637.65069 -1436.65533 -1570.49713 -1496.10255 -1431.93611 -1595.62134 -1438.28070 -1509.69945 -1307.29654 -1131.46422 -983.51756 -894.32791 -746.67756 -654.15634 -542.86282 -407.47016 -358.16181 -313.57525 -257.78406 -230.75598 -188.48751 -150.20956 -124.14995 -86.68047 -79.07319 -11.81607 25.28206 58.76514 103.09704 144.70698 196.19649 278.18418 342.24912 370.54204 323.89707 270.37957 250.67097 241.85007 239.73230 222.97918 215.51526 200.06442 218.61317 216.13633 213.61699 225.92199 215.86681 219.80408 234.26569 224.95758 238.10201 251.96054 264.57217 280.57669 289.19553 297.29642 321.79608 346.64540 375.42966 399.26247 432.79057 452.19938 448.16960 410.72022 382.06611 363.39770 400.80954 209.19674 207.57113 155.94427 133.03615 90.68612 76.68305 53.90777 43.62308 -7.61515 -47.35695 -66.67806 -81.19054 -112.71479 -221.53954 -350.80919 -586.76726 -783.67642 -1011.73265 -1317.03182 -2200.58393 -3020.30210 -3966.15292 -4332.80846 -4585.67892 -4801.91117 -4848.92772 -4878.50464 -4639.05317 -4241.44542 -3747.87812 -3400.91738 -3206.43355 -3160.48165 -3147.49862 -3183.74863 -3203.04849 -3228.12408 -3240.11038 -3246.22980 -3257.75194 -3255.60966 -3267.27626 -3272.06924 -3273.50577 -3278.72098 -3279.25641 -3280.56428 -3291.22530 -3297.82487 -3320.54440 -3326.76526 -3316.46268
-5101.72183 -5107.99484 -5103.52650 -5111.68215 -5109.61525 -5102.85502 -5102.71675 -5108.36561 -5097.30601 -5098.00821 -5092.36083 -5106.54441 -5094.19044 -5091.77967 -5097.83103 -5088.66607 -5091.97814 -5075.48372 -5060.26031 -4932.91352 -4632.47101 -3695.22085 -2781.87366 -2043.27673 -1867.73569 -2042.42034 -1947.12636 -1906.89723 -2166.70864 -2069.28192 -2248.77395 -2386.59457 -2284.95570 -1206.78429 -1099.28437 -959.69316 -818.04769 -728.39262 -592.54544 -485.26696 -423.60298 -317.56114 -276.59090 -233.06413 -197.53186 -171.35616 -126.09322 -94.84443 -74.85631 -24.83959 7.82282 64.11072 138.46197 199.72516 275.32892 286.66741 286.26919 280.63807 283.29118 254.01745 221.39274 224.19120 188.81871 184.19265 196.94225 198.40255 195.27731 195.41181 205.74997 200.59789 201.47879 191.64457 210.63280 211.30916 221.96478 247.89054 231.98456 267.85745 264.93291 274.09977 299.50191 320.69879 358.98163 385.89330 404.31249 448.91369 449.12786 415.51482 384.53490 568.01625 535.64128 175.15709 172.37379 130.35677 104.34776 77.62036 45.65019 22.35888 -4.92096 -41.89840 -66.73952 -87.79722 -123.44253 -181.59075 -349.05013 -441.17652 -765.46233 -903.25751 -1056.90454 -1403.09149 -2595.22436 -3617.49947 -4123.83226 -4519.77671 -4761.80101 -4793.56961 -4833.86286 -4853.69160 -4545.97823 -4167.24096 -3828.83388 -3316.42568 -3195.95496 -3146.05262 -3156.44906 -3180.83812 -3204.97626 -3234.78176 -3247.40577 -3253.74006 -3253.76123 -3268.70076 -3266.24150 -3277.81303 -3273.36266 -3269.51379 -3291.64697 -3273.20898 -3292.59032 -3291.69527 -3308.27579 -3323.16701 -3321.61057
-5122.32471 -5113.85532 -5111.10878 -5117.65942 -5113.28421 -5106.61496 -5111.09005 -5112.98101 -5112.34292 -5096.84747 -5110.54116 -5096.17731 -5106.10512 -5102.37404 -5105.45921 -5096.28395 -5088.09697 -5089.01766 -5079.54958 -5024.02352 -4647.68808 -4000.16554 -3103.60690 -2609.07694 -2552.08424 -2614.94337 -3000.03665 -2881.49396 -2882.60440 -3023.88010 -3388.93576 -3285.69765 -3127.43606 -1865.79009 -1167.05464 -979.85892 -899.66008 -806.29506 -670.11844 -622.73483 -573.32025 -491.03705 -414.19098 -290.81622 -224.36700 -179.70162 -150.90258 -114.84991 -63.57057 -22.35635 37.83029 93.04488 181.47588 253.96938 287.62119 267.70376 203.19895 185.66435 215.02489 201.90592 179.48670 181.02719 182.94852 169.00600 172.24360 184.15089 191.09463 192.22570 192.89028 190.43754 193.09662 188.38141 201.74453 188.28787 196.33229 203.27305 212.02425 229.97706 242.22107 263.80352 277.57721 316.32106 327.16296 370.53253 387.14877 440.68386 469.39456 431.89893 496.40287 622.74013 418.12716 141.95332 118.84543 109.71846 84.80630 40.62765 18.62041 -19.38579 -47.74992 -77.26076 -123.15885 -181.21742 -220.18684 -353.34643 -511.22460 -572.25868 -841.94471 -1098.27007 -1304.97515 -1911.43274 -2744.38772 -3716.93682 -4293.35040 -4580.51730 -4788.08604 -4824.78008 -4862.42527 -4826.72610 -4332.80188 -4009.07870 -3779.81432 -3345.10609 -3162.91810 -3129.97485 -3153.53274 -3180.59676 -3224.72246 -3233.76296 -3246.99665 -3251.43887 -3257.78303 -3253.21201 -3272.49025 -3270.58549 -3275.72657 -3281.84359 -3276.96407 -3284.64359 -3286.88891 -3304.60484 -3312.24934 -3329.12064 -3328.52601
-5122.83031 -5134.71970 -5124.09618 -5119.77443 -5124.80491 -5129.89146 -5127.54087 -5124.89416 -5119.74769 -5123.19714 -5116.93129 -5111.96675 -5112.82741 -5111.43529 -5096.82476 -5104.98707 -5103.86577 -5094.88465 -5086.41387 -5047.16618 -4782.69493 -4412.44005 -3941.54848 -3697.56870 -3660.79862 -3917.70042 -4123.06254 -4279.90336 -4248.87165 -4335.57873 -4174.27006 -4777.08662 -3669.98148 -2412.47777 -1178.12695 -1085.64820 -1026.12263 -862.93247 -756.10105 -779.14548 -802.86476 -650.94445 -513.74296 -349.38249 -253.62292 -222.01616 -166.03739 -130.91315 -103.89413 -37.20516 54.16344 144.78520 248.01120 290.25466 234.17251 158.81062 137.07836 141.55448 135.15273 137.08966 145.25911 145.32525 164.26299 155.64147 160.49632 161.75221 167.61451 171.28137 162.37741 179.38257 174.90311 179.59034 175.24297 182.47152 188.14161 185.32377 185.92018 214.48298 226.19244 243.49347 275.68781 296.53296 326.98991 363.02877 382.99167 450.02319 453.63829 510.60941 603.31002 553.15028 208.71107 133.74472 98.72314 65.57853 48.99945 19.23932 -17.71110 -45.37505 -74.61278 -112.89980 -184.24265 -262.76338 -373.23800 -706.15617 -772.03647 -741.76240 -1012.66143 -1333.10577 -1825.07978 -2905.12338 -3987.95268 -4148.42545 -4525.55508 -4705.94414 -4827.60109 -4866.95270 -4907.35008 -4794.90993 -4505.05160 -4260.49268 -3750.47714 -3236.03425 -3116.28414 -3107.82559 -3160.16003 -3183.61328 -3210.02371 -3228.81341 -3248.56836 -3260.14057 -3260.72542 -3271.00447 -3271.42185 -3274.14638 -3268.48904 -3273.19920 -3276.25079 -3286.92572 -3290.92907 -3297.59413 -3313.69500 -3322.00048 -3328.16723
-5137.22409 -5126.40908 -5133.63158 -5127.10476 -5127.10618 -5120.97113 -5123.38726 -5125.79719 -5127.93866 -5124.31104 -5125.96164 -5109.06272 -5114.31161 -5104.42218 -5110.81109 -5107.31034 -5099.70251 -5093.75669 -5093.14276 -5078.20422 -5000.17920 -4714.43507 -4682.65730 -4574.27222 -4427.15808 -4625.75426 -4682.82443 -4714.77397 -4709.72488 -4786.47178 -5024.94694 -5119.04916 -4395.22358 -2842.38232 -1576.94298 -1295.10419 -1119.98392 -954.57100 -924.27010 -958.74359 -927.82283 -820.01446 -553.45533 -402.65860 -289.59711 -232.78587 -188.14673 -132.42273 -98.31449 -28.87001 4.67512 122.32011 192.13069 223.04079 150.46099 99.57268 102.88409 97.14363 109.14709 107.98056 115.31164 124.82671 149.71185 136.53825 139.28269 149.40599 168.67324 162.43846 167.93198 163.20129 169.69675 166.65309 175.07811 168.39610 163.79508 177.21862 184.56139 198.22736 204.42217 250.91239 260.81368 288.52960 300.50766 338.08832 361.32107 403.22403 408.27649 419.20433 525.00290 421.95906 111.63041 88.40062 59.04529 47.24699 9.43910 -18.17248 -52.30742 -85.31301 -102.23107 -112.21847 -241.90148 -432.26355 -664.01644 -917.84655 -934.08641 -1079.77155 -1285.28659 -1525.55294 -3663.32372 -3790.12158 -4604.77287 -4626.43746 -4557.01039 -4714.59688 -4884.72763 -4918.19521 -4909.31265 -4874.33518 -4574.21259 -4328.09298 -3694.75218 -3177.88241 -3090.26394 -3126.67234 -3164.75217 -3206.70266 -3221.87996 -3236.74132 -3243.42866 -3257.90814 -3264.70870 -3261.78861 -3262.53757 -3276.86324 -3271.48609 -3267.54671 -3279.55490 -3291.26981 -3291.29529 -3303.94476 -3319.48502 -3329.23165 -3332.68712
-5138.48918 -5136.54327 -5135.16349 -5137.61029 -5130.32179 -5136.74252 -5130.81865 -5126.97768 -5139.28642 -5131.58578 -5119.47137 -5130.18750 -5119.08842 -5122.18032 -5116.55093 -5118.86805 -5104.00916 -5113.03912 -5100.25449 -5095.97641 -5094.38689 -5009.82502 -4960.27793 -4913.46295 -4946.67793 -4975.00349 -5018.91587 -5032.80256 -5019.11335 -5023.76984 -5122.99896 -5137.66432 -4632.99789 -3833.27493 -2156.25222 -1490.35467 -1320.05086 -1090.58563 -1073.33426 -1079.78133 -1008.93757 -941.92286 -699.99943 -535.71399 -405.41852 -235.85398 -207.00013 -131.25001 -104.58494 -47.28020 -16.50130 97.80224 106.37592 125.74629 79.40241 77.11709 77.27328 64.53522 66.94944 82.67737 79.66140 84.44081 84.82476 106.30249 116.03682 132.03674 149.76306 163.96311 150.25904 158.97909 153.97186 153.91169 162.07418 163.01306 161.90049 155.33143 173.94065 171.12825 201.35988 217.89607 243.90844 266.83487 288.32492 310.75729 349.05687 369.05437 367.26831 401.02068 333.69039 167.91714 92.72662 69.92288 24.65315 2.73761 -53.24849 -63.19589 -112.92891 -108.03146 -148.45825 -239.22700 -390.84141 -706.75066 -956.85616 -1232.48726 -1168.81872 -1498.59571 -1814.07791 -3407.15407 -4491.89962 -4628.40064 -4942.10754 -4921.45210 -4753.99230 -4523.60727 -4647.21845 -4853.51347 -4995.85940 -4831.79328 -4894.88085 -4620.69704 -3673.75401 -3156.78671 -3100.06027 -3116.75405 -3149.80544 -3209.74050 -3223.60338 -3246.31299 -3249.28332 -3264.28805 -3263.34314 -3275.75285 -3269.88765 -3281.47555 -3274.79431 -3278.55614 -3276.44242 -3280.95493 -3284.13818 -3313.03644 -3307.61123 -3323.51556 -3330.07065
-5138.20213 -5142.76610 -5146.69830 -5140.58558 -5139.29389 -5135.67268 -5143.30314 -5139.39979 -5135.89715 -5137.44169 -5138.68615 -5128.73255 -5129.81055 -5125.38063 -5120.80241 -5125.74835 -5127.26523 -5116.54781 -5113.82389 -5106.11176 -5105.49741 -5089.66841 -5085.61476 -5068.69348 -5070.87560 -5048.38453 -5067.32301 -5061.19674 -5060.96500 -5060.03223 -5113.08590 -5123.83378 -4668.48150 -3872.48792 -2660.95708 -1980.49367 -1544.87516 -1307.83196 -1234.36144 -1143.82385 -1057.45174 -997.44119 -899.81404 -581.06393 -486.90762 -256.74936 -208.34726 -133.38806 -118.30050 -86.01753 -19.56119 54.50871 62.44036 66.86872 28.38339 22.93262 37.98335 43.95235 38.46225 57.08610 52.92274 52.35895 67.60130 96.76358 105.34921 121.69741 150.93463 145.07144 151.87839 144.99911 146.32905 149.44480 138.11520 132.10572 138.15365 142.52111 149.78476 162.02263 166.42694 215.89415 225.62274 240.20311 259.68007 284.18764 317.42975 337.32885 394.65081 467.95706 341.27954 108.03091 89.29305 55.48985 1.39213 -10.12733 -53.00159 -81.96758 -158.05996 -199.90705 -243.36424 -426.30274 -635.79326 -1200.46613 -1443.40559 -1453.65362 -2676.97806 -2469.00976 -3627.25431 -4745.81270 -4867.48985 -5076.71621 -5081.14517 -5014.13217 -4926.45074 -4567.37970 -4628.24561 -4850.46287 -4954.24451 -5109.09619 -4843.39596 -4228.96068 -3474.47863 -3146.45168 -3102.88712 -3118.68547 -3190.01506 -3217.04374 -3231.49768 -3239.90689 -3256.89678 -3263.58086 -3265.60174 -3277.65390 -3267.05953 -3269.97679 -3261.56167 -3275.81633 -3279.95217 -3284.41729 -3290.00351 -3304.21507 -3311.77375 -3332.76417 -3331.94418
-5133.08710 -5152.61946 -5146.33155 -5155.97190 -5143.42981 -5142.18349 -5149.84962 -5141.24350 -5150.21515 -5150.45869 -5140.23180 -5137.35885 -5132.39424 -5135.49244 -5132.86291 -5129.27227 -5136.12169 -5128.32900 -5135.49668 -5126.68234 -5122.33894 -5118.26970 -5104.21109 -5100.49949 -5104.97620 -5094.40637 -5088.02532 -5068.07713 -5062.38157 -5069.55152 -5096.49580 -5132.51301 -5069.26412 -4949.93678 -3621.01087 -2688.74816 -2135.22171 -1575.29507 -1381.60282 -1213.01247 -1106.41272 -937.61803 -820.47482 -596.35837 -399.50488 -300.79180 -224.25856 -165.99907 -123.23350 -108.76672 -76.39776 -18.63950 -9.82650 -22.59775 -2.42849 -0.68901 -1.41271 -8.22279 4.98182 17.43324 30.59114 35.06316 39.68114 52.34446 89.75414 108.57451 142.59021 158.09109 145.37486 134.31639 136.31487 124.88643 142.09603 131.23163 123.31310 128.06904 137.76937 142.51363 171.21034 198.15002 193.60344 217.17596 253.54507 273.30565 286.88997 306.98913 327.42302 418.89594 300.88554 112.29895 73.56433 37.69438 13.09023 -38.37325 -78.85661 -111.38722 -160.10766 -248.01889 -478.56386 -1281.71265 -1576.22254 -2239.40666 -2169.80354 -3477.98746 -4649.93315 -4498.71448 -4442.70623 -5145.73655 -5209.38293 -5193.16785 -4952.96213 -5064.84854 -4936.27683 -4764.31062 -4387.67822 -4543.24368 -4539.59417 -4839.64897 -4929.66758 -3733.05308 -3225.95330 -3105.93057 -3116.36665 -3161.43949 -3180.85971 -3207.44927 -3230.33731 -3240.11531 -3266.33584 -3269.19783 -3256.52329 -3270.48851 -3270.87276 -3267.62375 -3278.97352 -3273.46284 -3271.26897 -3281.92745 -3289.39656 -3308.19496 -3315.85869 -3333.74788 -3335.77886
-5153.75305 -5150.00847 -5159.41293 -5154.84570 -5156.46609 -5149.87107 -5155.98931 -5150.28746 -5151.72269 -5153.88462 -5144.73282 -5144.48830 -5152.52783 -5151.57081 -5142.32535 -5140.81329 -5144.60356 -5132.20672 -5130.50434 -5140.20225 -5130.01489 -5121.72562 -5121.66101 -5110.30031 -5107.73398 -5096.16949 -5099.28190 -5092.63049 -5065.80468 -5074.85071 -5086.38782 -5106.82945 -5153.05560 -5118.11509 -4921.59040 -4263.28083 -3318.75843 -2155.46971 -1593.40605 -1192.46405 -1003.35144 -913.78207 -788.21104 -637.66780 -420.13486 -318.97409 -269.95250 -199.45489 -165.82716 -121.69911 -87.85677 -77.14768 -60.00751 -53.47388 -56.21387 -58.13711 -57.40186 -27.46529 -16.45667 -25.41277 3.90878 -4.19093 9.93889 50.92916 66.04206 112.97760 138.26068 153.46163 140.11945 138.20842 133.35510 129.95254 116.03161 112.78194 116.07426 120.99604 107.56305 120.37970 136.28924 156.56692 201.53593 232.58913 230.72916 250.18473 266.20862 275.61226 262.46723 293.73637 143.86915 54.64142 54.87013 -5.47319 -20.40422 -53.02087 -108.88611 -125.01751 -203.15621 -510.24702 -1156.26630 -2353.77645 -3260.45113 -3735.74473 -4530.13322 -4887.07531 -5277.57434 -5274.56142 -5294.69079 -5310.92495 -5185.91975 -5250.25766 -4935.69941 -4233.63298 -3491.41969 -3700.60866 -3346.74144 -3409.95503 -3921.32403 -4331.69032 -3983.87300 -3426.93455 -3098.52758 -3079.76280 -3110.40864 -3140.40652 -3194.77408 -3234.91996 -3244.51514 -3255.41263 -3267.51035 -3248.55455 -3261.87968 -3278.65186 -3268.00803 -3269.07485 -3268.44742 -3274.70544 -3272.47514 -3290.53562 -3286.35603 -3294.78786 -3313.45072 -3337.49677 -3340.99594
-5164.86268 -5165.58137 -5178.85817 -5170.53809 -5160.08080 -5155.95038 -5159.43121 -5161.38923 -5161.96727 -5159.15021 -5159.61494 -5157.03005 -5157.14834 -5159.20831 -5152.36827 -5157.82379 -5153.55215 -5150.26398 -5142.36176 -5149.23534 -5137.33961 -5136.77505 -5133.86856 -5139.51715 -5120.12544 -5113.15212 -5115.24000 -5097.27346 -5090.76551 -5083.59359 -5080.56986 -5089.27734 -5135.34405 -5141.08336 -5010.93484 -4730.56629 -4228.03198 -2648.60604 -1904.11540 -1107.45685 -1011.37469 -942.94927 -877.11750 -712.41948 -469.56986 -345.36745 -266.07277 -221.71126 -214.46034 -171.42497 -133.11551 -134.07533 -118.88198 -90.63637 -102.27326 -92.69186 -83.65065 -72.27412 -58.97363 -48.73926 -31.32931 -18.60349 -11.86554 18.54764 52.93210 75.38136 127.93111 153.84951 159.18237 136.53255 128.82534 130.21835 119.83318 107.27827 92.97136 105.06421 101.82477 125.62112 120.17835 148.80420 182.00199 196.16848 218.07907 244.44854 238.70702 254.10929 233.41445 271.00680 150.73659 37.01150 31.03934 -15.43280 -42.41838 -113.59187 -244.68957 -342.47222 -781.56999 -868.35419 -1547.48661 -3736.94053 -4923.05826 -5299.56487 -5096.00633 -5256.85666 -5247.11690 -5271.16000 -5326.79551 -4946.51808 -3580.91589 -3022.60765 -1398.01161 -769.61927 -1055.43858 -1280.93443 -1429.59572 -2105.92469 -3378.92860 -3347.82923 -3258.95864 -3109.06203 -3067.25188 -3065.23306 -3122.56254 -3175.11093 -3210.71067 -3236.95288 -3246.65957 -3248.86170 -3274.87430 -3268.70746 -3266.17823 -3274.62081 -3273.13196 -3270.93622 -3271.69847 -3273.25563 -3269.53200 -3278.15008 -3275.38399 -3295.29349 -3317.70755 -3336.26022 -3347.33173
-5164.74674 -5167.30177 -5168.28319 -5171.30539 -5174.16089 -5178.89541 -5177.30548 -5170.37750 -5181.66798 -5173.38233 -5172.80960 -5167.30513 -5170.59867 -5167.73630 -5162.32974 -5169.26576 -5160.90343 -5161.26780 -5160.87425 -5146.58394 -5153.54181 -5149.87298 -5139.36601 -5143.30955 -5135.65241 -5136.62892 -5129.15917 -5126.09628 -5104.39768 -5099.62076 -5089.68905 -5083.60919 -5083.32435 -5096.39521 -5072.06755 -4948.03590 -4215.51431 -3083.64186 -1973.35109 -1303.91620 -1026.56038 -956.52224 -886.61938 -855.36990 -694.46034 -431.77483 -302.37788 -244.61833 -228.93687 -188.48213 -174.85333 -163.74164 -153.40792 -132.37209 -131.70418 -102.37722 -128.97557 -98.79641 -85.84054 -64.30409 -74.93326 -64.80133 -41.12227 -13.07225 11.98684 28.94935 118.70893 180.33891 161.74017 142.69699 128.39146 120.61012 111.76515 89.36067 91.28333 90.80699 92.32209 104.32567 116.80550 128.42030 139.53389 173.12110 197.00201 205.91338 202.99378 208.73979 195.64649 212.23924 106.29205 -12.99987 -17.03936 -48.31187 -104.24710 -157.92532 -531.61565 -1162.35291 -2039.18274 -3326.63793 -4081.68332 -5028.88679 -5291.77754 -5305.25475 -5303.62299 -5289.13789 -5265.06491 -4838.45674 -4279.57464 -2819.68602 -862.86789 -746.97065 -766.93588 -114.32036 -125.62565 -121.77292 -144.05282 -1200.74646 -2568.58780 -2940.80683 -2992.85728 -2987.93838 -3019.23157 -3054.60409 -3133.37328 -3189.02935 -3217.08417 -3245.98514 -3258.29898 -3265.56074 -3267.70667 -3282.82454 -3276.82196 -3276.17899 -3273.95815 -3274.13515 -3263.64570 -3274.11030 -3274.05675 -3285.17367 -3294.90458 -3302.95483 -3325.34148 -3339.09102 -3340.47472
-5176.56848 -5175.26549 -5181.47510 -5186.99165 -5176.24408 -5169.87232 -5182.86466 -5169.92790 -5178.86207 -5184.62928 -5183.54068 -5181.56592 -5178.17865 -5174.57896 -5182.80456 -5176.96940 -5185.06710 -5166.68995 -5174.49732 -5173.08302 -5157.82332 -5172.92303 -5171.36373 -5160.96215 -5150.23090 -5148.35202 -5145.81093 -5136.67007 -5149.07725 -5114.86393 -5102.00189 -5098.65343 -5078.10831 -5073.24865 -5060.09573 -4893.85023 -4541.89764 -3278.44483 -2074.12108 -1370.95797 -1163.56207 -1073.22091 -931.10356 -874.69531 -817.71179 -641.43364 -455.53459 -352.95313 -308.95634 -288.07826 -242.12770 -236.42825 -179.22249 -156.55298 -176.13912 -183.68709 -171.10461 -136.52187 -131.24328 -104.18675 -89.24520 -86.54038 -67.66756 -42.34077 -22.21432 40.47636 89.15839 172.97132 202.94463 189.90581 151.87426 120.81967 102.42083 81.80520 67.18445 66.94423 71.96560 81.23442 114.55670 120.30821 121.09236 136.81445 177.03665 179.00390 184.80086 148.83383 182.55759 252.36870 122.60584 4.63913 -54.16153 -108.36880 -148.88688 -168.71386 -720.44792 -2523.84443 -3177.06316 -4066.90231 -4823.34389 -5016.46528 -5178.47591 -5359.97430 -5276.07218 -4996.32976 -4424.18902 -3216.40278 -2187.07705 -132.83464 -134.78797 -108.28268 -84.83594 -94.83790 -81.00120 -91.25071 -143.84970 -652.35771 -2314.27193 -2794.56861 -2951.07613 -2989.39820 -3035.75655 -3100.58616 -3156.68281 -3193.37012 -3225.29690 -3249.75351 -3263.23268 -3273.30854 -3278.81180 -3279.93780 -3281.29135 -3281.62925 -3268.64921 -3279.28237 -3277.61071 -3281.38952 -3275.14705 -3277.30113 -3288.09182 -3298.36396 -3324.39195 -3333.38157 -3333.33205
-5175.35633 -5180.23251 -5196.11266 -5197.88054 -5189.05579 -5187.71950 -5192.37950 -5195.25486 -5196.87759 -5179.50948 -5187.74779 -5186.76641 -5184.05656 -5192.28210 -5187.86043 -5195.49075 -5192.39739 -5192.28752 -5190.33629 -5188.32038 -5193.33359 -5186.36418 -5188.21109 -5174.36003 -5174.98212 -5174.37648 -5163.45228 -5159.85842 -5148.59125 -5149.36786 -5126.44190 -5121.49533 -5112.32032 -5082.93381 -5069.60951 -4982.37615 -4554.14036 -3883.31842 -2744.95189 -1800.14807 -1243.50471 -1119.09651 -1017.91940 -931.85345 -846.23030 -768.66506 -553.45803 -476.46929 -405.51400 -371.83157 -338.09210 -296.17976 -249.45042 -268.80702 -196.29003 -179.85283 -184.91663 -160.48943 -160.53577 -135.93665 -138.83700 -127.52270 -91.67999 -73.51367 -59.53014 -2.98456 52.28023 124.08170 159.05815 188.55579 178.43144 143.53406 114.28245 75.82167 64.07457 61.27437 54.53746 54.59719 104.34355 103.49513 107.86752 111.09289 133.55523 138.42250 145.16678 116.80607 91.22266 206.13035 171.57811 -10.81479 -94.55335 -174.99411 -316.49343 -635.29197 -1207.61954 -1768.06205 -2196.58626 -3493.18477 -3884.07153 -3949.94527 -4363.15333 -3431.79793 -3039.89582 -2495.64328 -1447.35243 -220.51970 -178.25550 -101.95347 -87.63235 -65.11004 -36.40331 -65.35110 -65.51637 -83.67196 -277.00212 -942.01875 -2383.72607 -2855.97052 -2990.46969 -3022.79385 -3067.29770 -3113.65316 -3163.76407 -3218.17899 -3241.12253 -3258.11270 -3281.13244 -3277.51358 -3282.31667 -3294.73699 -3290.19293 -3282.63056 -3285.49070 -3275.64758 -3280.90308 -3279.79608 -3282.81665 -3284.30940 -3286.80836 -3308.84620 -3318.14032 -3341.62298 -3333.92220
-5202.69081 -5196.13205 -5197.69080 -5199.46429 -5200.35947 -5187.24043 -5200.00294 -5209.48618 -5200.53031 -5200.37494 -5204.70709 -5208.51844 -5220.30380 -5211.67728 -5198.75390 -5209.37094 -5205.77040 -5215.64385 -5206.81844 -5206.26954 -5206.87381 -5200.14692 -5199.82046 -5201.37939 -5185.85997 -5181.74640 -5189.42483 -5173.39895 -5180.45944 -5163.74892 -5151.68982 -5141.78401 -5124.11680 -5111.96001 -5108.62478 -5038.07723 -4815.77341 -4073.37704 -3050.10714 -2351.65289 -1559.33136 -1243.13743 -1123.27471 -1007.94885 -929.62896 -812.21437 -689.88380 -567.98778 -575.00274 -551.70490 -548.37107 -407.65600 -418.12869 -379.16573 -269.51295 -235.86124 -237.39415 -224.47065 -210.43763 -192.69569 -172.89974 -148.81062 -126.21488 -105.42909 -75.46236 -41.13904 15.28640 64.60446 89.77742 104.92521 170.73307 118.02505 103.24579 47.69669 28.05437 47.85015 39.50852 54.56042 64.23061 58.42290 75.54229 91.48663 102.91823 129.30561 118.66785 98.40496 51.64399 81.48400 158.06558 11.32593 -150.36653 -217.01070 -311.49989 -628.17133 -952.85360 -1311.94970 -1527.37887 -2491.47923 -3175.45214 -2332.80206 -1062.17175 -373.56081 -645.94207 -610.30877 -184.44000 -166.76812 -129.71485 -81.17194 -54.40946 -56.77566 -43.31938 -52.77419 -78.69103 -96.30254 -467.73060 -1464.81759 -2494.66055 -2955.42228 -3008.74143 -3048.54945 -3123.92453 -3158.85091 -3188.28730 -3234.57717 -3265.71417 -3263.64458 -3277.84746 -3290.76179 -3298.08645 -3295.68576 -3290.95242 -3296.06369 -3291.69319 -3291.56143 -3291.55487 -3292.12360 -3291.58021 -3293.62317 -3287.67042 -3303.25843 -3324.72429 -3343.27922 -3344.33182
-5212.30606 -5201.29404 -5199.91965 -5206.63583 -5213.80275 -5214.30836 -5220.48864 -5212.28511 -5211.77504 -5213.74126 -5216.60013 -5223.60508 -5221.07175 -5220.73767 -5219.02743 -5223.57311 -5217.80104 -5217.12194 -5215.22433 -5225.32029 -5216.51771 -5215.90990 -5216.24346 -5219.31787 -5206.75788 -5214.43760 -5202.18342 -5198.13653 -5188.52818 -5190.10801 -5173.34557 -5164.55935 -5158.91760 -5150.89771 -5128.76658 -5087.97468 -4959.72378 -4473.50658 -3746.10598 -2679.00748 -2089.87738 -1452.55350 -1271.14515 -1087.48685 -986.31301 -810.23485 -776.85381 -733.40069 -738.67089 -695.77715 -737.70675 -663.68474 -601.28663 -556.79051 -421.18893 -354.30090 -310.11767 -328.21855 -282.09760 -248.22649 -200.34410 -175.96199 -158.31345 -146.22422 -92.09101 -68.29264 -62.25364 -19.51244 14.73046 65.17652 45.04446 30.75839 48.23857 28.82186 21.44959 15.86874 11.55734 33.66268 37.16916 49.03444 53.55911 68.46635 91.79406 88.59124 81.65915 74.09837 29.56846 31.05749 18.18410 -70.57749 -152.02612 -241.33982 -310.25308 -444.36421 -598.65868 -742.55843 -1114.83735 -1961.65237 -1492.51965 -730.55870 -177.76469 -113.61847 -120.07936 -132.61602 -113.18161 -74.75677 -71.29310 -64.20477 -60.16813 -59.65281 -68.52043 -84.07697 -109.43714 -125.70987 -248.38074 -1227.80289 -2545.03052 -3006.14251 -3032.62945 -3084.51104 -3114.99685 -3181.23568 -3223.38308 -3238.52196 -3267.34449 -3274.78136 -3292.14770 -3296.33247 -3313.78732 -3310.62068 -3310.69383 -3305.24614 -3303.35456 -3310.75904 -3302.49682 -3296.86323 -3305.17572 -3298.36308 -3299.58757 -3316.73222 -3323.29894 -3343.76803 -3347.43433
-5215.58324 -5218.09925 -5217.20120 -5221.88833 -5222.51205 -5228.67125 -5228.16981 -5223.72013 -5232.85090 -5226.42286 -5231.62991 -5235.10455 -5242.40131 -5238.29358 -5235.83914 -5245.18963 -5241.30112 -5251.76093 -5234.98353 -5239.87894 -5242.07496 -5232.97175 -5234.14774 -5235.93729 -5230.86591 -5231.28488 -5209.64395 -5223.19372 -5208.61223 -5197.19115 -5193.14802 -5177.18279 -5172.42975 -5175.26499 -5160.55270 -5138.21055 -5077.25348 -4804.94601 -4465.92671 -3139.85651 -2474.99128 -1839.03038 -1566.87767 -1240.90569 -1126.74730 -949.92485 -876.34441 -817.83490 -809.68545 -823.52297 -837.19345 -903.70717 -813.96411 -648.11896 -645.31620 -522.55703 -494.68543 -530.48189 -447.11164 -351.57438 -251.90841 -215.82221 -194.89910 -168.77833 -141.63931 -104.11916 -103.33223 -61.55846 -50.62440 -19.27040 3.53806 4.19582 -4.65613 -3.70166 11.89060 -0.16611 7.64937 10.99720 19.56141 30.41246 43.55929 49.21918 77.37464 85.08445 74.09277 62.48251 30.78115 -17.46824 -70.18745 -73.07614 -187.15666 -248.43349 -309.44313 -347.86247 -419.68316 -539.57851 -692.47296 -643.16458 -351.21053 -221.29272 -76.05527 13.21363 13.19562 -26.65972 6.68407 -18.96138 -44.80736 -60.03718 -75.05784 -87.87604 -104.62200 -101.72197 -123.10710 -493.57623 -1820.96532 -2525.55113 -3037.66737 -3013.34592 -3054.59254 -3083.75243 -3144.59859 -3193.72805 -3230.66665 -3259.05740 -3273.64669 -3288.00177 -3313.35019 -3319.27718 -3320.69643 -3323.61953 -3325.71466 -3344.27147 -3333.30285 -3332.30526 -3323.29736 -3323.77912 -3313.26009 -3317.73705 -3313.21116 -3327.66065 -3338.08781 -3342.14794 -3345.99894
-5227.76033 -5219.20795 -5229.68123 -5224.30563 -5240.23055 -5237.40020 -5244.30104 -5245.99544 -5242.76274 -5256.17080 -5252.60012 -5252.80154 -5250.71725 -5256.64392 -5255.45024 -5258.31119 -5247.90700 -5267.94231 -5251.99392 -5256.01925 -5254.24503 -5241.62462 -5249.57509 -5241.90420 -5244.04294 -5240.12718 -5233.62522 -5231.74877 -5225.46819 -5222.90565 -5207.14841 -5201.03083 -5198.28524 -5186.62950 -5160.40877 -5122.85261 -5145.56117 -5024.93979 -4563.66738 -4269.33877 -3291.08358 -2892.47515 -2121.67109 -1985.55986 -1873.76445 -1261.49894 -1098.73708 -976.39793 -896.05060 -916.68734 -972.44032 -1034.89045 -886.74645 -796.23022 -691.70785 -691.06280 -685.46898 -649.22983 -584.84490 -438.44637 -330.32996 -270.14923 -240.97013 -177.94820 -165.71415 -127.34711 -125.33765 -89.36255 -77.10808 -62.00941 -54.58184 -37.66945 -43.24267 -27.13330 -18.81694 -18.52165 -6.77853 -4.32767 -10.12284 6.51299 31.35120 29.72255 55.10133 53.95452 50.54406 40.52856 12.73527 -15.37309 -67.73323 -122.87886 -155.49381 -254.14472 -266.09078 -270.29669 -344.96516 -355.20848 -368.46651 -328.81254 -195.82495 -72.87119 29.16717 74.51263 125.78796 124.95982 84.08982 40.44915 -52.70495 -94.60668 -118.73649 -122.51644 -153.28891 -1182.19113 -1852.82657 -2540.55454 -2667.65013 -3037.57207 -3034.59072 -3018.22380 -3039.82107 -3077.51402 -3150.05345 -3203.73316 -3256.23628 -3285.76775 -3302.05154 -3325.94235 -3323.18895 -3325.33402 -3339.09067 -3341.99491 -3348.90008 -3354.85834 -3353.04010 -3361.22186 -3356.02876 -3358.45323 -3341.20266 -3335.86531 -3328.89722 -3328.96812 -3344.10680 -3354.02115 -3347.61015
-5246.80807 -5240.44244 -5237.38291 -5251.89489 -5243.63746 -5242.95746 -5250.35545 -5268.59466 -5260.65217 -5266.94208 -5259.90828 -5271.29373 -5279.37029 -5263.67815 -5275.72164 -5275.11356 -5279.79946 -5276.27805 -5265.40066 -5279.17582 -5273.73758 -5270.21033 -5261.96665 -5267.27971 -5270.45591 -5260.91332 -5255.25883 -5251.27906 -5237.68322 -5234.58111 -5228.22001 -5225.22375 -5219.36573 -5189.33655 -5165.50161 -5131.35658 -5128.96697 -5057.57809 -4902.50362 -4712.43637 -4428.49893 -4052.92541 -3297.93020 -3137.91872 -2461.04734 -1907.93461 -1379.07708 -1160.50494 -1106.52151 -1081.61251 -1087.28024 -1061.49368 -985.87811 -890.29531 -799.54366 -740.19712 -720.87593 -694.25498 -619.51378 -589.70565 -554.01632 -475.50200 -381.93387 -300.44288 -224.17237 -159.72779 -139.73148 -126.20985 -111.93831 -79.33233 -71.51090 -68.94353 -75.13634 -49.44691 -34.17107 -40.83895 -39.01067 -25.18807 -19.76936 4.12487 15.98088 11.62120 14.61324 26.07285 43.25807 20.06128 2.11189 -24.43372 -42.83784 -104.98297 -136.38025 -174.96138 -204.83018 -243.50967 -208.37376 -209.13976 -171.70889 -120.79205 -13.66959 151.10431 249.86435 377.36857 333.53514 194.98009 100.75403 -12.12082 -43.55525 -115.22024 -151.54151 -643.55027 -1378.42462 -2364.59809 -2642.60806 -3170.47504 -3063.73504 -3002.01328 -3003.66610 -3014.05632 -3065.28332 -3094.57065 -3186.23065 -3220.65765 -3263.97372 -3291.95626 -3324.01249 -3328.73337 -3346.23311 -3353.14924 -3354.99500 -3369.68162 -3381.02944 -3378.04967 -3382.55329 -3385.38038 -3383.06341 -3371.80227 -3368.80197 -3339.55719 -3351.31065 -3339.81435 -3349.82144 -3350.85779 -3352.01857
-5254.77241 -5252.32656 -5258.08207 -5260.24284 -5270.90271 -5280.30197 -5264.69844 -5279.95714 -5281.80157 -5280.46900 -5286.11140 -5290.15781 -5293.53379 -5291.07357 -5294.08163 -5285.16881 -5295.94026 -5303.72653 -5294.16481 -5302.28128 -5290.60459 -5296.10316 -5294.82178 -5284.27169 -5287.21914 -5285.24249 -5273.78288 -5269.13934 -5254.35692 -5262.78113 -5243.37237 -5254.19309 -5243.21880 -5207.75550 -5186.58281 -5152.10224 -5126.15941 -5097.43084 -5068.03167 -5080.17195 -4895.30117 -4756.25192 -4420.89936 -4069.28902 -3620.19556 -2893.76126 -1963.30437 -1520.97116 -1349.94572 -1329.86153 -1220.20981 -1151.01728 -1062.21954 -940.02308 -860.47089 -851.74814 -774.55531 -740.29613 -728.82740 -743.10620 -627.80839 -554.74183 -449.02310 -357.66128 -323.10148 -214.01363 -172.61200 -146.93203 -142.49175 -124.20436 -110.81700 -97.55588 -88.78471 -62.90260 -65.62006 -59.22525 -45.11217 -35.17993 -32.70026 -16.94303 -9.48393 -0.40541 3.40604 24.17734 18.29834 -5.92975 -3.24073 -11.03364 -38.22719 -80.17106 -127.92753 -143.06153 -132.33294 -179.16532 -161.61533 -116.25868 -96.14314 -74.52043 165.71576 390.76590 457.40686 703.49801 435.13471 174.87673 72.26797 -18.41170 -51.39812 -128.48702 -473.66373 -1193.96625 -2677.85851 -2903.59937 -2974.66518 -3029.11353 -2949.64525 -2957.61281 -2956.44311 -3007.92251 -3068.39999 -3140.32862 -3189.73618 -3227.09711 -3297.74457 -3331.41793 -3344.72541 -3359.02231 -3377.11336 -3379.20458 -3381.03930 -3402.63978 -3413.00901 -3423.87512 -3428.69910 -3410.28704 -3412.73094 -3399.70659 -3387.26008 -3376.42564 -3357.47440 -3352.97033 -3349.82173 -3351.19979 -3353.31372
-5261.12036 -5269.43164 -5266.10030 -5271.69160 -5283.90858 -5291.36931 -5301.06847 -5306.18456 -5309.91959 -5314.42606 -5317.02474 -5319.62041 -5315.30043 -5320.08323 -5327.88568 -5325.61353 -5322.61487 -5321.45666 -5329.67160 -5324.38144 -5324.45384 -5327.91533 -5322.10567 -5311.22976 -5299.22036 -5303.79058 -5315.59481 -5299.24567 -5290.72957 -5286.31667 -5271.95805 -5258.99923 -5252.73265 -5223.96669 -5193.85831 -5163.88089 -5144.72843 -5154.28633 -5123.61128 -5092.42886 -5039.23325 -4980.94067 -4844.22407 -4756.67198 -4439.27975 -3205.28905 -2932.51377 -2238.98585 -1726.26153 -1619.27921 -1284.98111 -1199.42664 -1140.73194 -1080.03880 -1001.56042 -957.37347 -850.28370 -795.21120 -823.14942 -874.06093 -779.21756 -625.97234 -539.01475 -498.66808 -410.86217 -292.84969 -231.18960 -213.63208 -169.59295 -134.07536 -129.59671 -127.55821 -111.56284 -95.08180 -89.17387 -77.41084 -54.15328 -54.99692 -27.17450 -32.47274 -26.30103 3.17902 1.10971 6.71581 -2.78945 -0.78280 -6.92580 -21.52834 -34.27111 -37.62993 -78.18354 -118.78759 -87.90384 -92.22573 -94.67350 -88.47080 -33.51868 83.57709 416.77879 682.88803 564.58371 516.36220 136.56429 38.20873 -17.65020 -71.80062 -122.22984 -288.97257 -658.16989 -2331.90195 -2866.38317 -2949.05754 -2934.18862 -2932.93743 -2927.13080 -2938.13071 -2977.49254 -3008.40261 -3102.30193 -3155.56014 -3243.52234 -3269.25283 -3314.23558 -3339.44510 -3365.75937 -3381.37578 -3411.07659 -3427.78043 -3439.34732 -3449.80255 -3453.61453 -3460.80734 -3463.87673 -3456.91069 -3440.00642 -3433.90769 -3410.02010 -3399.63655 -3388.16900 -3364.53312 -3358.56395 -3349.51566 -3362.31077
-5282.12195 -5279.06213 -5291.33411 -5291.20106 -5318.40454 -5316.34092 -5324.40908 -5334.06592 -5322.26399 -5341.87551 -5342.28891 -5369.80741 -5354.86965 -5355.87760 -5353.38115 -5363.34380 -5353.35156 -5360.76299 -5365.44854 -5362.49421 -5360.84630 -5358.65592 -5364.23682 -5358.49092 -5353.06026 -5340.68147 -5351.30291 -5328.55408 -5345.06904 -5319.72678 -5313.97877 -5300.16921 -5276.74810 -5266.53666 -5228.93645 -5218.36649 -5184.67814 -5171.95420 -5153.90164 -5113.86130 -5065.11009 -5016.02102 -5002.15382 -4948.26173 -4746.85772 -4296.16922 -3962.72667 -2988.31413 -2585.74333 -2058.62256 -1686.33452 -1253.21391 -1320.70536 -1272.33242 -1108.88964 -1091.90297 -977.19165 -949.59756 -941.80701 -1053.12730 -972.20222 -766.92695 -681.28116 -564.49495 -468.91768 -355.51858 -296.59631 -280.07959 -224.97532 -188.75933 -151.05369 -138.61077 -124.13411 -115.75234 -91.96089 -85.60684 -80.58024 -69.76533 -52.35909 -29.21469 -21.74805 -13.80596 1.11908 5.13524 -9.22862 -15.84890 -18.93052 -18.34119 -14.83392 -22.19320 -28.96254 -30.76679 -31.06195 -43.32391 -31.24127 -10.87629 124.23675 325.51252 544.89530 799.39839 555.17963 266.47882 41.43707 -57.88155 -99.72559 -181.78419 -207.89749 -735.45265 -1649.48560 -2867.18766 -2899.25747 -2879.73665 -2900.64433 -2908.63310 -2907.26233 -2938.83210 -2990.33698 -3048.47082 -3109.53653 -3196.04060 -3244.91103 -3303.05387 -3329.68089 -3361.00510 -3388.04027 -3409.54454 -3435.84562 -3451.92475 -3466.98175 -3470.20743 -3490.41757 -3497.61477 -3483.00871 -3487.00086 -3457.59896 -3442.65969 -3430.59180 -3418.24969 -3392.00695 -3367.15560 -3367.76821 -3342.43660 -3358.46391
-5301.58057 -5309.85061 -5314.10877 -5320.27960 -5329.75813 -5343.80076 -5363.88138 -5373.95980 -5377.66352 -5392.57135 -5416.46661 -5408.20567 -5406.33479 -5409.26264 -5392.69882 -5402.65519 -5401.57735 -5411.78044 -5416.07218 -5404.93324 -5393.32214 -5401.74411 -5394.15372 -5403.65197 -5397.23378 -5411.22689 -5392.77464 -5389.93250 -5373.18469 -5387.25692 -5370.53780 -5325.43713 -5332.33152 -5300.13338 -5300.94932 -5265.26194 -5251.17350 -5207.24275 -5201.12351 -5154.79067 -5128.52492 -5069.50528 -5035.78771 -4964.14965 -4934.56876 -4698.58847 -4548.38317 -4308.97072 -3837.74618 -3124.99398 -2550.87379 -2063.45869 -1816.33439 -1787.61984 -1371.08271 -1236.07109 -1234.47871 -1167.28100 -1665.76874 -1742.41048 -1357.82140 -944.59602 -698.44488 -612.47434 -469.39050 -416.04222 -392.50998 -333.19336 -272.95067 -238.48770 -184.33639 -139.80046 -130.34582 -106.88694 -106.66504 -98.23292 -90.50086 -81.88229 -59.40376 -40.89275 -29.42615 -9.07325 -9.34929 -3.53830 -21.59419 -21.25773 -1.77584 -5.14250 -17.89096 -25.01793 -21.73877 1.11688 23.68782 13.60899 -0.10741 71.59507 249.85580 472.86782 565.54762 483.77155 140.76580 46.63127 -6.94085 -96.84276 -158.13843 -215.05975 -255.05129 -939.60380 -2783.89958 -2989.68525 -2980.98322 -2918.07044 -2909.89437 -2909.45362 -2919.43771 -2956.86514 -3027.99189 -3067.69260 -3153.59888 -3212.44916 -3285.30323 -3328.70320 -3357.00903 -3402.43083 -3424.77812 -3447.56130 -3480.75882 -3484.45853 -3502.50188 -3511.51156 -3516.46832 -3522.98294 -3515.76320 -3496.90901 -3484.72816 -3468.44208 -3456.96241 -3408.06156 -3399.51373 -3376.22203 -3361.77651 -3356.30010 -3348.95512
-5335.64437 -5328.69091 -5352.83179 -5370.44957 -5377.30652 -5384.77384 -5412.34975 -5426.82217 -5432.78626 -5443.38402 -5457.89983 -5444.06035 -5458.88061 -5458.69597 -5459.83042 -5452.96486 -5457.12506 -5465.09209 -5470.98415 -5468.59454 -5453.85202 -5480.44667 -5466.82723 -5458.84507 -5473.36260 -5471.03021 -5459.27436 -5447.68245 -5465.60143 -5440.05167 -5433.64411 -5403.12413 -5385.94048 -5389.23109 -5358.29474 -5323.63708 -5301.47736 -5272.52458 -5230.21661 -5213.68151 -5163.40952 -5136.08604 -5071.30541 -5026.04357 -4968.87464 -4904.36456 -4819.62552 -4692.49570 -4432.50011 -4135.28867 -3806.30127 -3757.97196 -3596.18991 -3371.77002 -2516.09230 -3147.09546 -2865.18419 -3070.76906 -2572.88415 -2116.10760 -1552.03649 -1000.84937 -738.05803 -571.75932 -465.60793 -409.96624 -384.27470 -332.55490 -285.97762 -245.44862 -222.07752 -151.47631 -124.84512 -114.15016 -107.68902 -92.15640 -83.60498 -85.58669 -80.87496 -49.63056 -30.06489 -18.42796 -24.45739 -20.65634 -2.69058 25.44887 47.52083 36.07767 11.57745 -0.25222 -12.05158 47.34565 65.59733 55.17354 112.93367 244.18177 401.56478 673.72537 626.77742 319.40415 45.10410 -42.79020 -75.44605 -191.73097 -204.66760 -948.36992 -1288.48896 -2587.28289 -2928.08016 -3092.74210 -2969.70466 -2924.65824 -2943.59140 -2938.91573 -2949.27568 -2983.25782 -3074.36278 -3117.22925 -3173.99595 -3232.62121 -3292.27989 -3364.03790 -3396.12905 -3420.75124 -3456.67004 -3482.79788 -3505.36432 -3527.72907 -3528.28132 -3541.87078 -3541.78851 -3540.30579 -3526.84472 -3514.71964 -3501.73228 -3461.74643 -3450.86963 -3427.64965 -3406.09716 -3370.96881 -3365.72747 -3351.36745 -3343.96124
-5387.77504 -5379.33337 -5390.14264 -5414.23787 -5432.90990 -5458.80613 -5457.65528 -5474.99535 -5481.37833 -5509.15054 -5532.11408 -5522.99606 -5532.25789 -5561.53780 -5560.32704 -5562.40326 -5549.08095 -5545.94216 -5536.65548 -5527.86146 -5546.86963 -5534.64935 -5555.38899 -5558.36677 -5550.33272 -5529.70381 -5518.53531 -5539.80382 -5532.22001 -5510.36117 -5506.49126 -5503.55679 -5459.02126 -5440.40058 -5422.69186 -5396.30937 -5355.46553 -5324.97911 -5321.29849 -5260.96880 -5201.37457 -5198.32933 -5137.82968 -5078.72945 -5024.02011 -4941.64705 -4832.23365 -4734.34556 -4647.55752 -4507.60270 -4474.11722 -4359.75149 -4207.60198 -4205.19334 -3733.24809 -4036.65160 -3833.68267 -3546.76923 -3112.72341 -2409.94638 -1599.08330 -1195.99571 -830.07789 -553.85556 -485.47070 -421.83191 -407.09362 -365.81233 -285.00265 -256.90970 -231.22525 -203.78757 -128.23412 -112.11890 -108.06536 -91.84643 -75.54823 -71.13327 -69.07596 -37.48679 -42.66699 -20.71353 -10.34170 0.36296 4.07745 41.97542 63.64397 63.63476 54.69246 53.16056 61.31892 134.82432 170.80873 327.82752 404.74618 590.26405 916.32177 865.28338 448.74115 239.88555 -6.74663 -126.03506 -157.54392 -266.82975 -880.54726 -1594.13176 -3059.66175 -2629.58822 -3068.17811 -3069.47588 -2964.13382 -2938.70841 -2937.86350 -2960.20092 -2992.68158 -3014.61103 -3084.91074 -3142.84652 -3215.71400 -3303.05188 -3351.70116 -3391.41235 -3431.06648 -3472.50230 -3483.85523 -3507.96821 -3532.15929 -3550.27397 -3559.55843 -3559.89014 -3558.29675 -3557.26558 -3530.06763 -3520.45325 -3504.91447 -3477.10185 -3462.61792 -3402.13454 -3398.94805 -3366.34404 -3355.05826 -3342.59061 -3345.71415
-5428.22551 -5419.50334 -5448.08626 -5446.71630 -5514.07927 -5527.10625 -5543.34664 -5564.61930 -5569.73111 -5589.32504 -5616.13167 -5588.88445 -5596.55397 -5619.68031 -5597.00839 -5622.15230 -5623.68944 -5595.39852 -5633.68039 -5646.47764 -5617.82156 -5609.51290 -5622.91718 -5606.80773 -5622.78896 -5628.30803 -5595.30635 -5613.92827 -5571.99460 -5603.75546 -5575.96819 -5579.22992 -5555.03761 -5517.56316 -5510.53300 -5483.14818 -5488.89290 -5428.55992 -5374.01484 -5352.58415 -5307.62145 -5273.67497 -5250.89754 -5159.33816 -5081.38235 -5006.51838 -4845.40904 -4785.29225 -4663.10483 -4606.35394 -4534.15929 -4471.93453 -4423.08073 -4373.68543 -4324.10556 -4193.65384 -4043.94707 -3693.01958 -3159.21948 -2317.99848 -1750.22797 -1256.31536 -936.16050 -697.77502 -536.03906 -447.85960 -384.40643 -347.48092 -294.17502 -278.98438 -245.87039 -194.16706 -143.18923 -117.38189 -90.61332 -71.48405 -75.60997 -71.00677 -53.26555 -39.49346 -28.79656 -5.17654 12.06580 21.79489 45.81493 72.03538 74.37641 88.13911 80.97743 309.41890 335.88418 367.78586 353.56564 962.59551 1170.36269 1543.22978 1550.10409 1089.75990 744.94955 364.57007 22.08472 -160.25059 -293.32611 -1127.69718 -2793.60713 -3236.77166 -3567.78926 -2989.52979 -3094.97723 -3001.86530 -2977.17287 -2966.75027 -2974.75954 -2978.10055 -3012.34955 -3030.36102 -3122.09918 -3203.62207 -3275.30810 -3322.43372 -3364.87979 -3452.65416 -3466.76947 -3509.77499 -3536.75277 -3558.69095 -3556.02595 -3564.79351 -3578.45459 -3567.09627 -3563.68515 -3546.22911 -3522.81081 -3509.33601 -3488.42762 -3459.35163 -3443.29637 -3414.75746 -3398.58916 -3372.26767 -3353.57292 -3334.28955 -3341.07932
-5482.86033 -5476.51371 -5512.78492 -5545.66748 -5566.06152 -5569.01276 -5608.24413 -5637.33650 -5641.83111 -5674.54149 -5697.24908 -5724.28814 -5706.54255 -5717.59234 -5702.69807 -5703.65733 -5712.43053 -5696.45356 -5706.67077 -5709.56557 -5697.27663 -5704.80226 -5694.99805 -5673.39261 -5669.35497 -5692.85117 -5709.39551 -5685.23398 -5668.59071 -5651.07988 -5653.36329 -5637.30974 -5613.84842 -5608.58380 -5590.08251 -5542.96713 -5519.41189 -5513.49773 -5473.38410 -5455.37605 -5432.55587 -5349.95895 -5309.08877 -5226.89074 -5213.91191 -5064.09271 -4992.45966 -4900.87401 -4774.77410 -4673.23953 -4574.48916 -4508.84600 -4462.40548 -4409.05716 -4374.52811 -4283.67667 -4209.41726 -3826.07922 -3411.28043 -2644.02368 -1725.67876 -1406.54201 -1104.37001 -824.22335 -588.08845 -505.02125 -379.97507 -350.11598 -295.25542 -254.61511 -247.68059 -218.97643 -141.24296 -98.19549 -85.46109 -71.50401 -65.78782 -68.45390 -70.51216 -36.20057 -27.22537 3.18210 27.26234 34.56566 68.08677 82.43956 135.96901 237.11764 308.95178 603.68807 914.45361 828.62594 892.64699 1406.52469 1654.11156 2058.86169 1911.76948 1236.28590 989.55972 481.11679 5.12119 -182.51558 -1295.15790 -1614.48108 -3062.08925 -3668.98283 -3343.26332 -3136.01935 -3019.95097 -2979.93115 -2978.93927 -3005.55488 -3009.82073 -3017.86856 -3054.06249 -3092.15153 -3162.43045 -3252.08490 -3291.87107 -3387.49342 -3432.65198 -3472.72866 -3497.36481 -3537.83279 -3569.76210 -3566.21793 -3577.86647 -3582.39158 -3570.75086 -3566.04471 -3560.35067 -3547.84653 -3515.40833 -3493.36808 -3478.94489 -3444.23887 -3432.56721 -3413.07903 -3376.82681 -3354.36360 -3340.90308 -3328.57157 -3325.27486
-5541.26753 -5542.37943 -5574.79766 -5610.60527 -5638.84795 -5669.92525 -5697.90625 -5733.47426 -5731.57561 -5760.34108 -5769.17240 -5772.08184 -5791.85596 -5782.02935 -5802.03381 -5789.35994 -5781.76252 -5777.11165 -5771.05459 -5789.09108 -5775.69926 -5773.72499 -5768.91294 -5770.11254 -5764.50120 -5764.23890 -5772.01792 -5752.42633 -5728.40887 -5730.00300 -5720.85144 -5687.60000 -5703.36186 -5693.27450 -5671.00655 -5638.33032 -5616.06665 -5593.31351 -5575.32790 -5529.82526 -5490.62588 -5477.76207 -5412.17291 -5346.28107 -5268.39996 -5230.95918 -5119.33619 -4990.06730 -4878.61532 -4802.19271 -4656.24596 -4551.72474 -4505.13049 -4428.72517 -4410.57462 -4350.91113 -4262.45648 -4006.41342 -3548.76370 -2612.37262 -1977.18363 -1647.60900 -1252.28303 -837.66835 -666.41137 -523.89684 -448.87846 -338.78167 -298.19907 -263.35042 -236.16078 -167.72277 -87.24412 -74.78839 -83.19688 -80.27262 -57.09072 -47.56346 -55.74547 -64.91717 -45.22270 -5.01701 22.10092 36.93125 69.38550 115.57219 253.76177 500.38009 735.22438 1285.43842 1888.52263 1886.21084 2030.24239 1837.67881 1678.93632 1939.55495 1656.35280 909.46562 735.42550 -399.24475 -1884.89231 -2130.21265 -2174.80057 -3030.15245 -2882.42847 -3302.09665 -3256.76477 -3058.69350 -3000.86614 -2978.45919 -3023.83892 -3024.58832 -3053.97605 -3051.47806 -3087.43991 -3153.63655 -3188.05050 -3313.12592 -3378.15570 -3416.77884 -3472.14779 -3511.46746 -3555.65228 -3566.46567 -3575.28299 -3579.45731 -3586.73583 -3567.72739 -3570.03309 -3547.46473 -3542.11269 -3511.83045 -3499.34821 -3473.47057 -3455.71258 -3428.91819 -3413.20902 -3394.57046 -3350.57181 -3341.21704 -3337.58637 -3318.80175 -3323.15028
-5604.50977 -5616.54982 -5641.38772 -5681.89912 -5700.83794 -5731.58892 -5791.11524 -5810.76827 -5812.75407 -5826.61623 -5848.70986 -5845.11287 -5840.96954 -5848.58412 -5850.56763 -5842.37391 -5835.57350 -5830.67039 -5839.10665 -5841.32648 -5833.56721 -5814.44553 -5812.03825 -5802.97074 -5813.57902 -5809.41339 -5803.78587 -5806.68534 -5778.59247 -5786.67257 -5769.62871 -5764.62133 -5744.39293 -5734.11834 -5742.22609 -5696.38508 -5695.51882 -5636.65581 -5635.55156 -5599.09775 -5548.04202 -5511.43868 -5478.98283 -5424.51177 -5358.70630 -5297.02109 -5198.86086 -5089.96041 -4998.65454 -4900.36979 -4754.52425 -4633.77561 -4525.25397 -4471.75708 -4409.93681 -4339.49726 -4162.72879 -3913.20474 -3518.57579 -2531.31376 -2104.97705 -1521.72298 -1238.83910 -905.74037 -753.19860 -592.43409 -515.91412 -345.92236 -281.14414 -235.27731 -190.44027 -145.32930 -76.18717 -57.54495 -33.98068 -6.59400 -18.72162 0.87368 -29.02125 -30.11167 -77.12500 8.67875 27.17429 145.57814 313.62251 323.88322 497.71383 974.66971 1481.15275 1909.88086 2234.61328 2356.93634 1899.53241 1585.94811 1197.08274 828.06760 791.80913 395.02199 -131.26779 -875.29974 -2926.81586 -3623.36343 -3787.84246 -3790.43970 -3527.33339 -3246.70650 -3106.70261 -3043.40202 -3011.18697 -3021.20933 -3042.33259 -3104.56154 -3075.84795 -3117.43823 -3156.46061 -3205.93637 -3282.62079 -3344.56088 -3395.39832 -3428.44505 -3494.11610 -3544.43958 -3567.46346 -3576.01258 -3599.18268 -3586.35169 -3586.63075 -3571.08862 -3563.12567 -3536.20020 -3520.19635 -3506.23320 -3473.80310 -3450.63669 -3435.67513 -3408.61701 -3398.25054 -3371.26912 -3341.14928 -3325.99412 -3317.77854 -3311.45088 -3307.71183
-5684.39846 -5683.75289 -5706.12128 -5748.14811 -5793.58341 -5814.34571 -5824.62793 -5856.13651 -5860.14991 -5897.35236 -5896.26282 -5898.87830 -5899.94847 -5901.67476 -5883.95882 -5875.09216 -5891.08830 -5884.75958 -5879.53016 -5877.28350 -5868.45173 -5870.90881 -5869.41337 -5852.59561 -5844.89501 -5852.82938 -5830.90308 -5824.54128 -5810.88827 -5809.04104 -5793.89414 -5793.60323 -5782.01109 -5760.10042 -5753.85446 -5745.33573 -5731.74804 -5715.95940 -5684.50659 -5666.77082 -5631.60037 -5587.81168 -5558.40376 -5490.81947 -5440.24486 -5377.24168 -5286.12554 -5192.87724 -5085.29393 -4990.58124 -4828.85741 -4694.19072 -4613.88138 -4528.48163 -4386.49041 -4279.89342 -4127.38441 -3899.66604 -3381.28478 -2745.21294 -2440.39586 -1677.02691 -1336.39933 -1068.83419 -874.40142 -674.48061 -492.32783 -412.25286 -295.67385 -226.49634 -173.47775 -151.38361 -61.78009 -51.98528 -29.19875 26.09787 34.82625 25.04203 53.78738 39.90289 4.41881 332.84694 795.51038 604.52798 704.32408 876.51799 1191.56917 1334.66049 1572.50536 1772.48617 1831.10176 1368.10689 1053.34956 864.40494 793.23264 227.60533 242.57494 100.68135 -693.44413 -1742.54903 -3406.19160 -3813.92776 -3577.01708 -3379.93888 -3283.31669 -3178.49751 -3070.86230 -3030.79120 -3018.25280 -3040.01224 -3071.44777 -3120.98003 -3128.08797 -3146.60112 -3195.11452 -3243.23053 -3311.97771 -3382.49833 -3436.20150 -3512.25708 -3544.61332 -3562.79144 -3585.52099 -3583.13524 -3593.31194 -3592.00957 -3579.19698 -3557.05442 -3535.49313 -3514.89738 -3497.10021 -3467.60145 -3445.65058 -3425.04914 -3405.66581 -3390.47734 -3357.98043 -3351.49640 -3342.90683 -3330.40114 -3313.42797 -3309.58708 -3302.38065
-5744.77693 -5742.13083 -5777.01397 -5806.61906 -5835.60586 -5863.90514 -5902.49510 -5914.18810 -5926.88039 -5934.93647 -5936.24372 -5928.12072 -5931.27694 -5937.29854 -5922.68401 -5923.80987 -5909.34602 -5903.30842 -5904.99990 -5889.03097 -5890.11835 -5870.63088 -5871.48291 -5867.90353 -5867.63798 -5856.71885 -5839.48548 -5826.53483 -5824.35092 -5831.59575 -5807.05403 -5794.63484 -5798.68563 -5797.93440 -5786.24890 -5761.49179 -5744.36463 -5728.26578 -5723.79152 -5705.84794 -5665.05224 -5652.18440 -5608.04770 -5549.96314 -5501.21567 -5411.47630 -5355.46396 -5262.23339 -5188.51461 -5000.61744 -4739.32587 -4401.06818 -4179.26695 -4239.81582 -4063.58428 -4250.42238 -4077.06210 -3927.98389 -3569.15084 -3308.86459 -2593.42692 -2357.59434 -1363.07722 -1049.59803 -887.52586 -638.08892 -579.13380 -461.85522 -326.38694 -221.22485 -194.65578 -64.90789 -47.03606 -4.31305 131.11041 200.79021 286.42693 250.28394 235.55492 417.03129 356.98587 732.61548 1104.18998 1286.48189 1236.59815 934.18783 914.06755 916.87651 1057.35744 947.42739 981.71341 689.66276 649.51431 431.50645 251.05684 -65.54219 -182.00165 -406.39816 -1565.00918 -2648.18164 -3377.89115 -3608.89466 -3427.61070 -3273.41576 -3170.94945 -3121.23520 -3069.29932 -3055.18987 -3055.84427 -3075.12486 -3111.96362 -3144.16131 -3160.50336 -3193.60340 -3257.56692 -3305.35395 -3366.96974 -3401.93119 -3473.92337 -3519.29226 -3562.23481 -3575.30046 -3601.86191 -3586.34384 -3586.54370 -3572.74152 -3562.61804 -3539.85638 -3517.62786 -3490.46759 -3462.69400 -3453.76741 -3423.79279 -3405.27476 -3393.94383 -3363.14657 -3360.15287 -3341.83948 -3322.15757 -3321.82007 -3298.21578 -3301.51292 -3303.03949
-5819.60202 -5798.90486 -5832.76267 -5853.22136 -5870.20493 -5897.18330 -5915.24602 -5928.39555 -5944.78398 -5950.94945 -5950.17948 -5953.67362 -5945.71610 -5948.09740 -5932.93306 -5921.93075 -5926.14572 -5919.54129 -5909.08637 -5901.31790 -5885.42512 -5888.45954 -5876.48821 -5870.12784 -5860.98696 -5839.38879 -5834.34290 -5829.56734 -5816.15279 -5827.07553 -5809.19875 -5804.99333 -5799.53538 -5787.21270 -5776.43834 -5766.55655 -5755.31834 -5755.27270 -5733.29460 -5717.11242 -5694.98967 -5672.71141 -5660.77394 -5608.92635 -5540.26652 -5487.44620 -5423.16354 -5362.05636 -5279.77316 -4762.67728 -4177.88600 -3509.40815 -2828.35908 -2911.14207 -2880.14183 -3647.18408 -3975.31258 -3760.37291 -3633.76322 -3305.29836 -3049.00191 -2627.10249 -1663.84838 -1303.78962 -934.10306 -818.07222 -615.80398 -420.79956 -260.72569 -161.18546 -106.41823 135.72015 379.50745 477.39780 690.89700 696.01005 782.14999 1037.76286 924.37025 1063.73001 1300.11134 1044.45076 1069.57739 1158.70590 859.37561 332.20616 436.06322 408.51965 398.56409 498.77699 510.33084 363.62570 295.14325 197.63262 -94.29483 -1204.58238 -1693.31883 -1054.13332 -2085.86309 -3498.17996 -3706.56913 -3498.33015 -3351.65499 -3215.22362 -3178.13832 -3146.33427 -3104.52353 -3074.54074 -3079.31495 -3106.64667 -3140.00418 -3207.97008 -3229.69124 -3238.82519 -3289.92836 -3342.53191 -3402.32312 -3441.04907 -3494.99298 -3536.93878 -3584.46326 -3596.15455 -3585.70262 -3597.03047 -3585.50570 -3560.34572 -3541.01700 -3508.00950 -3480.20069 -3457.26770 -3444.95053 -3417.37773 -3398.82408 -3382.55592 -3368.72245 -3358.10144 -3337.19614 -3324.18310 -3320.92807 -3312.31924 -3292.95175 -3302.47788 -3295.00867
-5845.20016 -5863.59458 -5872.77352 -5894.18314 -5911.47089 -5934.60101 -5944.13258 -5955.10277 -5954.02888 -5955.52198 -5953.42410 -5947.83656 -5944.85653 -5939.14736 -5930.40294 -5922.09587 -5921.15340 -5911.31170 -5895.75361 -5884.96251 -5873.15584 -5865.99277 -5853.64014 -5859.39043 -5839.32044 -5814.67476 -5813.13107 -5812.69910 -5815.37293 -5789.79491 -5781.04571 -5786.39929 -5781.48574 -5775.89181 -5777.07447 -5761.69365 -5758.59253 -5752.29543 -5746.09267 -5731.39314 -5707.70548 -5696.07080 -5666.93260 -5622.68653 -5582.60523 -5548.06342 -5482.83180 -5399.63982 -5199.89246 -4391.34722 -3341.18827 -2642.91383 -2108.70405 -2011.74085 -2139.54792 -3092.33341 -3414.15354 -3702.25368 -3680.86455 -3502.22544 -3175.03352 -2638.10487 -1837.10517 -1541.58434 -1125.86045 -892.70605 -807.07231 -518.17337 -316.71801 -102.85572 -26.95749 108.92312 534.03837 1118.04918 1418.07024 1489.63515 1591.08366 1905.86974 1692.71741 1515.96191 1487.89383 1096.94643 742.23237 759.03039 224.47466 154.68255 195.14869 148.99065 141.69408 329.10896 190.29416 54.50911 16.86633 -36.61206 -2077.06661 -3612.31567 -3153.69238 -2589.02772 -3039.91382 -3712.94615 -3649.89717 -3482.01110 -3314.81501 -3235.26582 -3198.90408 -3147.65273 -3124.43206 -3103.40855 -3108.45668 -3111.38481 -3197.78603 -3234.72121 -3254.65838 -3279.45904 -3329.27972 -3367.18456 -3417.21480 -3463.16437 -3501.61357 -3555.68658 -3589.76269 -3595.11212 -3590.96539 -3573.15436 -3564.30907 -3542.83233 -3521.60050 -3477.07512 -3464.95763 -3429.12187 -3418.74232 -3396.27132 -3370.22596 -3363.02977 -3346.03224 -3338.09692 -3322.69960 -3312.91755 -3310.49468 -3299.03228 -3300.82290 -3294.07189 -3298.33810
-5885.34442 -5887.03795 -5896.17046 -5916.85980 -5920.91839 -5940.50446 -5949.37820 -5941.59939 -5951.96734 -5952.65455 -5946.81514 -5942.33337 -5933.41902 -5923.36762 -5913.40588 -5908.15858 -5890.95201 -5876.40479 -5874.20264 -5859.89090 -5854.55697 -5845.95776 -5846.27108 -5815.44793 -5807.25553 -5793.97189 -5794.11785 -5776.78058 -5771.94179 -5767.44827 -5767.77557 -5765.41544 -5763.86054 -5750.28533 -5757.94746 -5750.17331 -5756.43863 -5752.23370 -5734.85042 -5724.44339 -5716.79200 -5701.51642 -5676.49395 -5639.64076 -5608.23943 -5567.82784 -5490.61746 -5332.48329 -4699.71725 -3842.82539 -2721.93562 -2151.58560 -1679.79601 -1580.92780 -1746.58276 -2186.07132 -3192.83091 -3196.25860 -3278.49324 -2909.40319 -2515.31934 -2215.60458 -1830.62637 -1302.98598 -1022.58370 -968.68281 -826.43454 -641.93238 -254.95621 -27.35774 70.98143 292.38197 746.96111 1049.50491 1340.28892 1358.72635 1291.65228 1506.18095 1054.66160 1057.49352 742.45701 462.53743 237.88764 115.31509 83.46053 65.04098 39.00891 23.62969 34.42247 118.39932 -177.09352 -220.09643 -1097.48045 -1485.00722 -2278.47575 -3840.46936 -3826.75574 -3499.46205 -3737.86369 -3675.74520 -3569.57587 -3440.42471 -3343.07648 -3254.77674 -3218.36008 -3185.47826 -3139.24484 -3123.47150 -3135.69108 -3188.04041 -3248.99820 -3294.88257 -3296.22822 -3298.57885 -3347.19208 -3405.57062 -3458.06692 -3504.31956 -3559.06190 -3568.55824 -3587.23310 -3597.20304 -3581.92025 -3573.42977 -3544.98786 -3507.07781 -3492.38376 -3452.21412 -3439.12016 -3415.91506 -3394.12329 -3363.00338 -3351.69128 -3348.47648 -3335.06303 -3324.89251 -3305.77195 -3299.30172 -3299.13433 -3295.64157 -3294.85419 -3302.86648 -3287.38737
-5897.49555 -5896.71189 -5912.25092 -5923.75562 -5939.76390 -5941.58888 -5943.56786 -5941.20924 -5931.41748 -5925.83546 -5920.85195 -5910.20650 -5911.45302 -5901.54293 -5891.65866 -5883.69435 -5874.22545 -5857.80588 -5854.41932 -5850.69357 -5830.79273 -5815.02999 -5798.92033 -5788.48780 -5796.88002 -5770.42602 -5764.29337 -5742.00182 -5737.32419 -5737.30852 -5728.22200 -5718.47590 -5740.38203 -5741.26700 -5736.15684 -5748.21896 -5738.61198 -5745.73614 -5741.55732 -5731.26803 -5708.67965 -5698.91396 -5670.33276 -5646.34926 -5605.56273 -5499.33242 -5321.79381 -4961.19486 -4241.83767 -3187.44810 -2498.04995 -1745.79000 -1603.78555 -1517.10155 -1560.31211 -1785.45200 -1971.65012 -2154.97863 -2145.86636 -1967.29548 -1578.38771 -1410.83330 -1142.22340 -956.86096 -906.70630 -766.65838 -709.25980 -521.24323 -250.12004 -55.77465 -19.04830 36.85736 282.96622 529.41560 375.26734 547.14010 326.83192 457.42543 483.52225 430.65180 107.83647 189.66813 27.59354 -7.86349 62.83962 -17.44661 -62.17427 -133.92610 -47.27182 -360.80407 -518.33597 -482.81952 -2553.84741 -3818.32826 -3122.07749 -3954.00406 -3818.89140 -3739.32507 -3705.45316 -3610.16391 -3530.35706 -3433.70070 -3341.64226 -3260.04957 -3231.78251 -3205.22070 -3160.35907 -3161.09862 -3185.92791 -3183.87313 -3269.73514 -3331.45834 -3333.25990 -3356.06771 -3399.79853 -3433.74542 -3479.56830 -3519.11782 -3554.84267 -3583.57289 -3587.46106 -3573.92059 -3564.01433 -3536.56346 -3537.56721 -3484.84567 -3474.13185 -3430.97056 -3407.03241 -3395.88475 -3369.71483 -3361.15988 -3340.97202 -3327.11643 -3322.84361 -3307.10725 -3301.45219 -3300.76251 -3296.28320 -3292.78976 -3303.05070 -3296.28226 -3285.24169
-5904.90912 -5914.89335 -5917.44933 -5920.77171 -5919.84828 -5933.40006 -5927.24985 -5917.76261 -5911.62455 -5903.53099 -5902.28537 -5894.29377 -5886.78910 -5877.79252 -5867.15047 -5844.02138 -5829.45921 -5845.37209 -5825.02399 -5807.50094 -5792.79785 -5798.12696 -5779.15914 -5764.48751 -5754.68751 -5737.30515 -5730.42803 -5713.65649 -5704.08293 -5705.72185 -5700.58837 -5705.47779 -5708.20020 -5717.27707 -5719.31949 -5723.38127 -5733.30082 -5720.04983 -5734.90050 -5717.33882 -5705.87512 -5698.70561 -5686.30931 -5634.35775 -5437.87610 -5107.04036 -4824.66885 -3954.70264 -3456.36805 -2481.22880 -1981.30329 -1678.76449 -1533.91617 -1472.42946 -1445.00052 -1483.74309 -1540.47202 -1499.90274 -1401.12904 -1193.29887 -1015.09102 -938.71859 -897.35224 -699.90530 -538.27622 -407.77394 -368.28425 -367.18835 -198.86992 -132.25444 -116.77533 -48.08214 1.34926 28.99659 93.11869 72.79547 76.59925 87.80167 55.58400 -3.73638 -11.53977 15.42054 -57.31221 -57.98536 7.51738 -96.61088 -200.37238 -334.11353 -1510.47587 -2982.59303 -4160.58856 -3245.50848 -2632.05562 -4037.63226 -3781.00582 -3697.37034 -3650.66436 -3617.39042 -3575.05811 -3548.57573 -3490.49212 -3410.70995 -3334.46740 -3274.35912 -3239.52182 -3198.06320 -3178.63077 -3188.27779 -3210.66872 -3273.31220 -3342.75169 -3368.24531 -3361.22115 -3388.02315 -3421.38561 -3482.55822 -3500.83448 -3539.60572 -3558.54168 -3573.29788 -3581.00549 -3575.38159 -3550.30288 -3527.75744 -3500.72445 -3461.23568 -3447.30257 -3416.26650 -3383.32748 -3381.88527 -3347.00146 -3332.29423 -3328.81800 -3319.80236 -3309.61453 -3301.68245 -3294.42280 -3294.87505 -3293.58378 -3288.39829 -3290.41011 -3294.46205 -3290.30952
