-3781.44223 -3781.34223 -3783.94953 -3788.75788 -3791.67682 -3798.27910 -3814.86975 -3851.72469 -4080.57654 -4412.75310 -4710.36469 -5070.29837 -5031.38650 -5340.92392 -5537.21339 -5660.60510 -5713.18861 -5721.34033 -5727.72876 -5731.65503 -5731.22254 -5731.34859 -5733.12156 -5734.14033 -5731.99233 -5733.30627 -5735.05562 -5734.06773 -5733.07644 -5731.05166 -5730.60733 -5728.50977 -5727.09719 -5724.15292 -5722.33093 -5721.01334 -5719.13843 -5718.47909 -5715.92873 -5711.23292 -5707.94841 -5703.19604 -5699.59662 -5694.08829 -5686.03165 -5681.12526 -5675.54118 -5665.69099 -5659.13313 -5650.66253 -5642.50423 -5633.02245 -5628.68845 -5613.30010 -5596.22363 -5580.70508 -5560.30662 -5548.33430 -5532.35828 -5517.14943 -5506.62494 -5493.01152 -5482.90873 -5470.28232 -5461.46411 -5451.67938 -5443.16336 -5429.90094 -5415.58333 -5405.85129 -5394.40933 -5372.39037 -5349.72605 -5325.05603 -5285.98577 -5268.53837 -5231.20559 -5190.45349 -5141.76980 -4921.93599 -4601.97177 -4230.01403 -4028.66607 -3647.35715 -3625.75009 -5285.30501 -6585.30063 -5997.98582 -2811.08585 -1214.18450 -579.47493 -511.86280 -1088.11817 -1249.35059 -1675.04648 -1837.69806 -2002.55397 -2726.37776 -2759.05195 -2923.98906 -2508.39060 -2035.88987 -1736.07189 -1758.21894 -1933.89202 -2310.63354 -3326.41554 -5384.68684 -6818.88426 -9373.65877 -10784.67824 -11559.23357 -11550.63236 -11576.89921 -11580.84289 -11583.35395 -11569.94978 -11022.58795 -10381.53375 -7624.90049 -4856.70319 -3986.52142 -3624.75167 -3510.54771 -3475.45354 -3475.68781 -3499.30784 -3527.42807 -3560.57777 -3598.44567 -3634.56080 -3666.46984 -3691.93754 -3706.78696 -3722.88678 -3738.54988 -3741.52589 -3743.60074 -3740.14154 -3733.81988 -3724.21973 -3707.10963 -3707.20963
-3791.09299 -3790.99299 -3795.21068 -3796.51422 -3801.10482 -3807.55571 -3813.79628 -3844.02250 -3931.93053 -4113.89777 -4205.73493 -4386.64820 -4658.42305 -5047.55909 -5283.52591 -5587.12298 -5693.82891 -5716.12643 -5732.40802 -5738.79571 -5741.23652 -5742.45893 -5743.68451 -5742.09053 -5741.35211 -5741.93521 -5740.43923 -5739.82997 -5737.94539 -5736.56550 -5736.01492 -5733.61011 -5733.67987 -5731.88615 -5729.50313 -5726.97179 -5726.06016 -5723.16648 -5721.06663 -5716.65768 -5712.77929 -5707.80289 -5703.31353 -5698.62220 -5693.30759 -5684.69255 -5678.45685 -5674.30104 -5663.47351 -5654.15129 -5645.03139 -5638.25087 -5630.41270 -5614.02996 -5597.35132 -5582.06929 -5561.19830 -5549.89079 -5532.01657 -5516.98064 -5505.68929 -5491.77130 -5480.06798 -5468.69471 -5458.66901 -5448.35852 -5438.52725 -5424.64609 -5409.81968 -5400.43482 -5386.25571 -5373.09261 -5352.91805 -5323.66527 -5294.72823 -5271.99251 -5222.97077 -5149.87276 -5102.80911 -4839.48416 -4724.57325 -4536.52608 -4299.01808 -4026.77688 -3871.84829 -5130.50910 -5706.83656 -4830.13842 -1428.08489 -482.88916 -253.89494 -184.79779 -329.83786 -673.58341 -1028.99734 -1288.21856 -1612.42211 -2042.29609 -2583.15385 -2617.41519 -2354.21914 -1895.59982 -1721.42491 -1768.16047 -1946.53064 -2184.59837 -3646.79882 -5472.01592 -8216.77419 -9510.32255 -10909.04182 -11413.69686 -11544.69253 -11567.91061 -11579.25857 -11581.59810 -11566.80957 -11147.35109 -10388.05801 -7599.37714 -5930.33968 -4313.63874 -3720.07647 -3520.45805 -3466.76969 -3466.96017 -3487.90967 -3513.69974 -3566.21481 -3581.26997 -3627.14321 -3659.01899 -3686.86209 -3708.61778 -3724.67877 -3733.23406 -3742.69306 -3744.86095 -3742.72107 -3737.09880 -3730.11748 -3716.64783 -3716.74783
-3801.07107 -3800.97107 -3804.76163 -3811.68123 -3811.19685 -3816.43737 -3820.08867 -3828.25749 -3846.50420 -3890.60161 -3909.71138 -3953.04062 -3997.38300 -4315.41418 -5010.06076 -5252.38386 -5542.70935 -5691.08323 -5716.97337 -5745.23838 -5747.69042 -5749.01785 -5749.20366 -5748.14595 -5749.78851 -5749.82120 -5747.33422 -5745.83475 -5746.77587 -5745.81163 -5743.05437 -5741.29169 -5738.73094 -5738.60735 -5735.71396 -5733.32935 -5731.81813 -5728.18861 -5723.34665 -5721.48234 -5717.59058 -5713.69430 -5707.04970 -5700.88695 -5695.83752 -5690.64631 -5683.77946 -5674.75885 -5667.68146 -5658.59949 -5650.52575 -5642.36953 -5632.46573 -5618.90959 -5602.02353 -5582.43762 -5563.75778 -5546.43000 -5531.75746 -5518.75642 -5505.72352 -5490.49250 -5481.11557 -5467.07408 -5457.89670 -5442.07300 -5430.92502 -5417.45268 -5407.13066 -5393.55043 -5382.07400 -5369.30398 -5340.99233 -5320.37296 -5280.58850 -5266.40674 -5227.15485 -5109.29393 -4960.40282 -4797.23289 -4646.93723 -4519.21064 -4369.32695 -4202.45992 -4090.05886 -4345.32712 -5109.57671 -3106.76806 -983.44969 -246.71385 -151.78565 -89.31670 -140.73299 -133.94452 -678.62924 -1036.68383 -1656.97263 -1793.06146 -2336.43841 -2354.30188 -2195.87352 -1770.84181 -1665.87317 -1802.97741 -2119.57574 -2565.00251 -4754.66244 -6405.14697 -8472.37108 -9748.90376 -10573.81813 -11374.85096 -11534.41307 -11547.61170 -11574.08079 -11578.09575 -11567.12094 -11312.32320 -10925.18461 -9729.71537 -7605.45156 -4522.04888 -3987.94926 -3583.92713 -3484.87360 -3466.12773 -3479.94118 -3517.14119 -3550.33885 -3580.67597 -3624.25051 -3651.08641 -3679.83386 -3698.74346 -3719.02410 -3722.13031 -3732.28547 -3740.08160 -3738.87093 -3735.14408 -3730.83015 -3721.06275 -3721.16275
-3811.14822 -3811.04822 -3815.44160 -3818.44936 -3822.77805 -3825.68845 -3828.91016 -3832.69444 -3837.48807 -3845.17425 -3850.87274 -3864.48990 -3905.75309 -4029.24846 -4281.36062 -4787.25756 -5081.38980 -5531.32736 -5687.91499 -5743.45849 -5753.69395 -5757.14687 -5759.17756 -5756.20176 -5755.48234 -5756.13918 -5755.13722 -5754.15292 -5751.39844 -5750.50039 -5748.47669 -5745.69693 -5745.22852 -5744.73120 -5743.43066 -5739.43617 -5736.74801 -5733.39865 -5730.70629 -5727.21114 -5721.86540 -5716.97908 -5710.97762 -5707.04966 -5699.67983 -5694.26943 -5686.05333 -5679.76523 -5671.13614 -5660.08315 -5653.50206 -5644.91223 -5636.67595 -5617.17158 -5599.56583 -5584.64588 -5565.50509 -5547.37686 -5534.37159 -5517.49859 -5505.94618 -5489.62560 -5476.96773 -5466.09245 -5455.19198 -5441.11357 -5423.76611 -5416.69833 -5400.14981 -5390.64309 -5372.56607 -5354.74751 -5330.88569 -5311.23947 -5277.44918 -5240.55759 -5195.20689 -5131.10208 -4926.06704 -4771.07400 -4632.72131 -4394.34360 -4366.21124 -4350.55010 -4318.93441 -4072.00609 -3925.47132 -2246.23315 -192.30498 -82.54883 -28.37938 -34.78228 -64.93412 -110.12027 -526.52237 -1234.72034 -1821.83044 -2002.09249 -2265.49509 -2253.21469 -1930.78448 -1705.77577 -1592.80506 -1766.09377 -2107.28986 -3071.31922 -4242.38277 -7283.29976 -8841.02285 -9469.91461 -10479.15512 -11041.78150 -11548.72984 -11526.36412 -11554.07369 -11574.20573 -11553.45571 -11541.84396 -11306.45063 -10690.56083 -9804.17729 -5234.66908 -4186.94728 -3563.87243 -3449.91454 -3453.38726 -3471.75432 -3506.40577 -3538.13383 -3568.27585 -3596.82443 -3627.82774 -3651.31995 -3682.15024 -3703.53299 -3714.00782 -3717.89683 -3727.44808 -3730.36189 -3729.87449 -3725.19837 -3720.29925 -3720.39925
-3821.35266 -3821.25266 -3824.03964 -3827.58279 -3831.20097 -3838.96113 -3840.54075 -3840.54027 -3842.60097 -3846.62731 -3850.37181 -3851.72634 -3866.30965 -3905.07482 -4134.96427 -4402.26644 -4810.47240 -5329.66395 -5607.52966 -5709.38501 -5755.32710 -5762.99429 -5765.63920 -5766.24739 -5763.95232 -5761.76527 -5760.43555 -5759.61373 -5758.34544 -5757.14808 -5756.56850 -5757.31827 -5750.69154 -5749.81829 -5746.37163 -5744.66257 -5741.19293 -5739.58784 -5734.81236 -5730.35359 -5727.47746 -5722.06484 -5716.20049 -5711.19989 -5703.06078 -5698.13257 -5695.69479 -5679.34629 -5669.86351 -5666.25160 -5656.24311 -5649.21685 -5633.45954 -5618.18508 -5601.15442 -5587.11832 -5562.60173 -5550.47316 -5531.19484 -5518.96559 -5501.02219 -5491.70357 -5474.72028 -5466.14758 -5450.21486 -5441.22692 -5424.25154 -5412.38228 -5394.72856 -5388.14524 -5364.44991 -5344.58586 -5323.42061 -5300.88970 -5282.07222 -5235.39753 -5178.08003 -5062.80408 -4931.15669 -4746.32346 -4427.60061 -4206.77632 -4133.22415 -4124.28963 -3972.78309 -3368.91077 -2160.92020 -389.53232 -10.40609 9.19851 32.48568 39.26484 -24.85154 -202.99391 -633.07464 -1596.96307 -2108.96535 -2129.77074 -2193.03967 -2080.85655 -1810.36660 -1708.80994 -1655.40008 -1820.24398 -2206.11026 -2774.66168 -5009.10963 -7265.38222 -8708.36761 -9050.86380 -9784.75125 -10608.24138 -11413.66519 -11457.77906 -11515.35101 -11552.29142 -11549.15900 -11542.76795 -11526.88317 -11127.32243 -9576.88987 -5877.11310 -4110.10348 -3532.54632 -3434.58362 -3442.04058 -3468.90579 -3489.46967 -3525.17657 -3536.81565 -3591.89479 -3613.95979 -3639.54984 -3653.68474 -3676.78717 -3692.35718 -3704.23050 -3700.54137 -3713.02177 -3713.65561 -3714.98063 -3714.10254 -3714.20254
-3831.56883 -3831.46883 -3835.35079 -3840.70913 -3843.00395 -3846.24000 -3848.27360 -3852.54024 -3854.92172 -3854.48879 -3855.39849 -3855.98376 -3868.24722 -3879.47354 -3963.41590 -4017.69517 -4373.12324 -4724.75827 -5309.02917 -5611.20769 -5738.71773 -5761.53390 -5771.88085 -5772.04905 -5771.24895 -5770.57392 -5767.68705 -5767.32703 -5765.38454 -5765.48202 -5763.05125 -5759.36385 -5759.12470 -5755.88333 -5753.20661 -5750.98001 -5747.91457 -5744.28368 -5740.38699 -5736.33735 -5732.68557 -5726.80598 -5722.28216 -5714.43088 -5707.73414 -5700.11889 -5695.48228 -5687.19210 -5677.53662 -5668.65182 -5660.89019 -5654.58019 -5636.64451 -5621.16872 -5599.78181 -5587.52041 -5563.72244 -5548.94819 -5528.06632 -5516.66314 -5498.66161 -5487.78428 -5478.67366 -5463.14013 -5445.04511 -5434.01095 -5422.45095 -5405.02851 -5394.36045 -5376.53255 -5361.17350 -5338.93144 -5310.83058 -5299.70376 -5273.11407 -5239.36158 -5138.64366 -4982.63918 -4820.64469 -4634.55003 -4145.19030 -3723.77063 -3830.55662 -3831.66893 -3066.27781 -2444.44934 -1420.36235 -77.74633 -2.25303 51.82134 90.47052 40.95465 -22.50110 -161.03865 -768.36592 -1665.64170 -2139.20056 -2206.65455 -2198.71533 -2101.52613 -1920.17510 -1601.34927 -1715.88350 -1937.76479 -2248.96461 -2899.13728 -4118.53980 -6322.46153 -8152.21327 -8377.00381 -9088.14725 -10337.71984 -11386.08634 -11464.28468 -11526.49767 -11537.87576 -11535.50598 -11539.60859 -11523.03166 -11243.70050 -9886.82783 -6373.20084 -3940.82536 -3535.36856 -3440.72179 -3430.02800 -3457.12167 -3478.31496 -3507.23890 -3540.53342 -3564.84995 -3587.90279 -3620.99091 -3642.90282 -3662.45553 -3671.45502 -3682.44832 -3690.44486 -3696.40779 -3700.43680 -3703.83959 -3704.16675 -3704.26675
-3841.95335 -3841.85335 -3844.40277 -3850.46303 -3852.67055 -3856.54785 -3858.01363 -3861.85460 -3864.83215 -3868.23899 -3866.42710 -3870.64563 -3870.64859 -3878.85403 -3903.89006 -3942.86782 -4157.12564 -4333.96834 -4995.75063 -5494.26507 -5701.01454 -5749.90547 -5775.22540 -5779.44799 -5777.29208 -5778.18669 -5774.75501 -5774.44765 -5772.60921 -5771.95373 -5768.60441 -5767.72883 -5764.08162 -5762.54392 -5760.14431 -5759.21043 -5753.19204 -5749.00818 -5747.15926 -5740.84243 -5737.55179 -5731.86024 -5724.30092 -5719.11231 -5711.81350 -5705.89037 -5697.79435 -5689.64654 -5681.80285 -5671.89494 -5666.00764 -5654.94663 -5641.95146 -5625.49592 -5607.67806 -5584.75605 -5562.51326 -5554.71585 -5528.90711 -5516.94048 -5498.96355 -5487.55290 -5475.46570 -5459.81207 -5443.95945 -5436.31398 -5417.84641 -5403.82562 -5387.05484 -5375.49559 -5359.83290 -5343.20897 -5317.34055 -5299.42136 -5271.89050 -5233.70266 -5046.03920 -4847.18304 -4563.21906 -4418.28344 -4001.17709 -3613.84242 -3107.83588 -3081.29851 -2681.76616 -2069.65224 -740.92601 -104.99268 -48.52767 65.52440 93.88412 27.63550 -28.53057 -103.66173 -883.81538 -2024.90574 -2197.99945 -2211.05759 -2184.54088 -2016.96373 -1682.89258 -1604.57937 -1718.25350 -1920.78750 -2385.35285 -2886.79018 -4058.76243 -6892.37115 -7930.43458 -8786.00244 -9754.12516 -11001.60482 -11363.91878 -11465.31652 -11523.03326 -11517.30065 -11520.73983 -11528.84449 -11516.61104 -11105.03040 -10061.66016 -7204.58135 -4248.97647 -3651.46633 -3452.71812 -3434.93192 -3453.18170 -3474.55824 -3496.20753 -3516.90033 -3548.05611 -3578.74280 -3603.60447 -3622.35353 -3636.96265 -3656.65223 -3662.24323 -3675.06208 -3676.80444 -3681.51902 -3687.08130 -3691.01262 -3691.11262
-3852.39558 -3852.29558 -3854.81613 -3859.32794 -3862.11563 -3864.39164 -3870.29625 -3868.90674 -3873.58749 -3873.20172 -3878.93319 -3879.85663 -3879.71462 -3883.02759 -3889.57879 -3911.73389 -3955.52383 -4062.75874 -4491.34940 -5012.82489 -5566.64340 -5734.66281 -5767.50022 -5784.02673 -5787.57643 -5785.40070 -5784.04302 -5779.28316 -5778.41710 -5776.93010 -5775.28956 -5772.97259 -5770.86923 -5768.01742 -5765.30854 -5762.06784 -5758.79857 -5754.20623 -5750.17039 -5746.03339 -5741.05667 -5734.00897 -5730.52620 -5723.09567 -5717.66586 -5707.85944 -5704.18054 -5695.36952 -5684.55311 -5675.70858 -5669.05553 -5659.53437 -5639.72649 -5625.48245 -5605.36555 -5586.40199 -5562.23808 -5551.65328 -5527.26642 -5516.06368 -5500.96632 -5487.51568 -5474.65085 -5458.96695 -5442.87781 -5428.16143 -5416.86870 -5395.98314 -5385.24774 -5375.58346 -5351.88340 -5334.24037 -5314.81660 -5290.48031 -5273.90980 -5211.85869 -4982.81660 -4686.51482 -4382.56836 -4110.71551 -3771.83144 -3240.35386 -2755.47805 -2170.26598 -1586.98923 -1351.61967 -469.77757 -154.12683 -1.81458 61.58410 74.69297 24.54529 -41.53808 -345.70549 -1088.93964 -2032.29450 -2202.77248 -2206.98534 -2107.34376 -1853.62322 -1582.58776 -1498.31311 -1563.42219 -1922.11190 -2225.85624 -2754.50336 -3359.99570 -6141.24843 -8028.99511 -9097.11020 -10385.77158 -11193.21824 -11422.15760 -11480.01840 -11496.66028 -11503.70135 -11509.70145 -11518.42637 -11427.19022 -11170.28733 -9072.47042 -6994.46913 -4493.15961 -3662.68243 -3490.02073 -3435.79504 -3436.96447 -3459.48883 -3484.77884 -3505.07068 -3535.41252 -3558.91301 -3579.45141 -3598.15189 -3617.57477 -3638.78571 -3646.02294 -3652.52704 -3656.59520 -3665.89761 -3671.73470 -3676.31276 -3676.41276
-3862.84582 -3862.74582 -3865.84629 -3868.68470 -3872.60425 -3875.08371 -3877.52144 -3881.90469 -3884.90144 -3887.02183 -3890.11015 -3891.73023 -3890.55897 -3890.61141 -3893.81876 -3899.96443 -3911.07510 -3996.09639 -4268.05033 -4649.37946 -5229.11085 -5643.09506 -5741.28203 -5782.44948 -5790.51447 -5794.84707 -5791.54326 -5786.88949 -5784.28559 -5782.18288 -5781.72785 -5778.45941 -5775.50342 -5772.63250 -5771.98134 -5767.73711 -5764.57634 -5761.77541 -5756.81163 -5751.65721 -5747.90499 -5739.09034 -5734.10809 -5726.70545 -5721.58564 -5714.36940 -5706.78633 -5697.35844 -5687.34574 -5680.27447 -5673.73571 -5658.15201 -5638.38121 -5625.46962 -5608.50258 -5586.63071 -5567.28016 -5553.36074 -5530.85988 -5516.09664 -5502.74491 -5486.61901 -5471.46046 -5462.56263 -5439.73863 -5425.84666 -5414.63468 -5398.13334 -5379.89444 -5358.54994 -5345.93527 -5327.86819 -5311.27168 -5291.21059 -5265.57099 -5216.11436 -5076.93792 -4851.83858 -4429.12194 -3867.94882 -3414.27678 -2799.27405 -2052.83134 -1715.26796 -1216.51368 -980.55602 -267.74392 -97.57665 -19.02216 23.79460 48.25580 -23.34098 -50.39942 -163.04640 -390.22309 -1416.59338 -2022.14949 -2212.10494 -2024.64797 -1803.44573 -1379.45228 -1349.87420 -1467.01298 -1962.40113 -2619.57050 -3316.78420 -3769.81488 -5496.99979 -8152.72236 -9207.05475 -9912.45363 -10852.36246 -11368.00572 -11481.27948 -11489.13127 -11495.45132 -11496.73376 -11506.04625 -11475.52203 -11259.93260 -9714.50674 -5992.29125 -4153.25659 -3590.87455 -3488.29166 -3422.53288 -3428.90416 -3452.17467 -3469.91364 -3491.32111 -3524.37520 -3536.55109 -3567.46654 -3582.59843 -3603.53222 -3614.01772 -3631.52482 -3639.62403 -3642.66942 -3649.05008 -3656.84925 -3660.83138 -3660.93138
-3873.20424 -3873.10424 -3875.92841 -3878.04304 -3882.37962 -3884.50443 -3888.43632 -3889.94760 -3892.41376 -3895.60400 -3897.25598 -3898.95060 -3901.70436 -3903.62067 -3905.07360 -3902.88244 -3908.39375 -3933.62688 -4045.87230 -4250.78352 -4847.94973 -5417.57094 -5661.37256 -5756.81911 -5794.30660 -5798.28183 -5797.96607 -5796.55433 -5792.46640 -5788.53694 -5786.08489 -5783.92968 -5782.90131 -5779.80851 -5776.57804 -5775.43822 -5770.36989 -5765.02063 -5762.94403 -5759.69879 -5755.07010 -5749.41906 -5742.81802 -5733.62710 -5726.60769 -5717.80111 -5708.86474 -5701.18846 -5695.68995 -5684.82119 -5671.68998 -5658.61417 -5644.30489 -5630.44933 -5609.44791 -5583.54369 -5569.88260 -5554.38586 -5536.72248 -5519.10136 -5502.79537 -5485.22564 -5473.91090 -5456.39930 -5442.77274 -5423.57577 -5406.02125 -5391.94997 -5375.93751 -5357.48372 -5343.10678 -5316.45571 -5300.15883 -5282.97238 -5244.66518 -5213.16681 -5065.09772 -4781.11846 -4501.26380 -3992.71854 -3467.01684 -2415.17880 -1565.02764 -1215.56154 -1032.73922 -526.33408 -331.78799 -106.61884 -44.06173 -3.90820 7.70560 -42.38242 -80.83061 -101.40503 -295.61367 -701.62023 -1742.43739 -1965.38232 -1927.55332 -1649.86249 -1430.85884 -1355.82831 -1561.55153 -1763.29867 -2339.81218 -3399.25295 -4136.89525 -5475.79014 -7902.37512 -8833.77551 -9717.06769 -10707.50052 -11078.32193 -11453.74422 -11435.98081 -11427.32760 -11421.14082 -11375.88088 -11329.00065 -11109.83794 -8986.99889 -7274.65796 -4028.78510 -3613.52228 -3470.63389 -3415.97918 -3417.82496 -3432.63792 -3456.14772 -3487.38290 -3506.40113 -3529.48820 -3545.91022 -3565.08932 -3590.14087 -3606.88068 -3611.45971 -3624.73074 -3627.30853 -3633.15398 -3641.15291 -3645.48351 -3645.58351
-3883.36159 -3883.26159 -3885.50459 -3887.32469 -3890.46336 -3894.07397 -3898.92014 -3900.18668 -3899.96218 -3904.97911 -3907.70469 -3910.07487 -3909.55496 -3910.57761 -3910.72497 -3911.08408 -3915.71842 -3930.07584 -3968.52986 -4161.40978 -4452.09337 -5051.33708 -5471.34053 -5676.30058 -5788.32091 -5803.68451 -5804.23979 -5801.81240 -5798.21216 -5796.17275 -5794.19939 -5791.87111 -5788.43117 -5788.19522 -5786.24934 -5782.52349 -5783.03963 -5776.85673 -5769.79516 -5767.74845 -5763.25158 -5754.91580 -5749.61197 -5743.03724 -5730.73007 -5724.74598 -5715.83435 -5705.65625 -5698.18417 -5690.11997 -5682.28900 -5664.67263 -5652.45249 -5628.27516 -5601.31833 -5582.66071 -5571.43956 -5552.21480 -5533.71705 -5519.04776 -5500.12251 -5489.41896 -5465.33742 -5457.04037 -5437.96673 -5420.02123 -5404.11687 -5391.88996 -5370.58421 -5357.26401 -5343.67299 -5315.83475 -5285.67204 -5250.94372 -5206.28248 -5175.25002 -4959.48416 -4620.30563 -4426.27116 -3859.65485 -3183.83109 -2214.63614 -1287.43435 -844.67926 -624.13317 -313.58078 -216.87802 -76.70959 -57.64940 -13.54980 12.99389 -22.66283 -41.79590 -91.66459 -158.79672 -341.34815 -1013.29016 -1653.11317 -1808.45984 -1609.76998 -1531.81039 -1451.62624 -1580.47401 -1844.01733 -2236.94876 -3045.47478 -4237.95744 -5098.17159 -6402.64464 -8081.57278 -8912.87560 -9846.53712 -10735.34217 -11076.19818 -11273.90729 -11218.45799 -11267.24296 -11261.82990 -11265.48816 -10939.68059 -10081.68172 -7395.92293 -4619.40888 -3608.56915 -3433.45738 -3400.06741 -3411.56001 -3430.29201 -3437.42324 -3469.99807 -3495.75625 -3515.35667 -3542.81021 -3551.30400 -3576.04640 -3587.21761 -3599.99663 -3606.91107 -3614.20737 -3619.21408 -3627.49507 -3630.81173 -3630.91173
-3893.33467 -3893.23467 -3896.35526 -3900.27116 -3901.94824 -3901.87282 -3905.47556 -3909.62301 -3911.85740 -3913.41249 -3915.65895 -3916.52464 -3920.08170 -3922.26370 -3917.75645 -3920.16543 -3920.12868 -3926.75974 -3936.60416 -3983.67256 -4148.39253 -4642.74852 -5232.09543 -5550.10429 -5784.01357 -5805.68531 -5811.34412 -5810.46484 -5813.04540 -5805.28238 -5801.14369 -5800.36850 -5801.98592 -5796.39734 -5795.53117 -5791.44309 -5784.17430 -5779.35090 -5774.26140 -5769.97704 -5766.59806 -5757.02067 -5749.74989 -5748.10205 -5742.26669 -5732.95766 -5720.57354 -5712.21841 -5702.31603 -5691.63821 -5687.03228 -5676.24373 -5654.13689 -5638.79665 -5607.47624 -5587.25356 -5568.19355 -5553.48978 -5532.46709 -5519.91191 -5498.62020 -5482.44557 -5467.03039 -5449.49849 -5436.54180 -5419.89106 -5399.53431 -5385.88902 -5363.48940 -5346.90584 -5326.35915 -5271.86751 -5241.48193 -5204.70098 -5087.91239 -4932.03485 -4814.37873 -4547.57405 -4046.14728 -3333.91429 -2515.55982 -2046.46413 -1124.63353 -703.49667 -363.73151 -258.03038 -114.28690 -70.86489 -38.23365 7.82721 19.52545 -5.84911 -42.06273 -83.24051 -105.50062 -217.12095 -642.35294 -952.33928 -1398.90908 -1585.58459 -1468.54489 -1354.75571 -1531.64855 -1837.85282 -2144.50031 -2808.80127 -4103.85787 -4370.39260 -5761.95097 -8236.41630 -8732.74977 -9202.80175 -10060.82264 -10463.26836 -10783.79339 -11038.16145 -11057.60998 -11091.57121 -11087.60356 -10676.66558 -9509.55570 -6813.78694 -4929.19980 -3575.37877 -3384.32331 -3377.80719 -3404.78785 -3419.23635 -3438.56393 -3458.91135 -3479.79591 -3507.37103 -3526.30514 -3545.31012 -3562.12184 -3574.35983 -3584.33720 -3593.86087 -3602.50594 -3609.30236 -3612.23571 -3617.15753 -3617.25753
-3902.84712 -3902.74712 -3904.29705 -3908.24998 -3910.31146 -3912.85362 -3915.57683 -3917.31163 -3920.70826 -3921.96651 -3922.89900 -3925.15204 -3927.64283 -3929.12896 -3928.66891 -3928.22964 -3929.30732 -3929.09110 -3935.67056 -3947.76003 -4000.11183 -4277.07010 -4745.96491 -5244.80845 -5700.23056 -5793.97905 -5817.51675 -5820.07902 -5817.89298 -5813.99671 -5812.33306 -5807.06379 -5804.35743 -5807.63477 -5804.86970 -5795.39256 -5774.16871 -5774.95368 -5772.46307 -5763.62369 -5764.76412 -5755.23983 -5749.97615 -5747.24942 -5742.01049 -5737.90981 -5730.39300 -5721.85545 -5713.79828 -5700.62263 -5690.74218 -5681.97360 -5659.02241 -5636.99345 -5608.20555 -5589.08346 -5572.11935 -5550.66734 -5533.55904 -5519.49948 -5505.14135 -5485.50920 -5469.31174 -5444.42479 -5431.03174 -5412.95702 -5394.72188 -5375.86349 -5362.88277 -5340.59018 -5321.22430 -5257.36159 -5136.37110 -5072.82876 -5014.70203 -4576.15362 -4425.60107 -4115.38420 -3418.49126 -2763.65672 -1705.93683 -1025.77525 -584.49020 -438.70622 -180.12189 -135.46808 -66.78851 -49.10093 -15.11200 40.69438 54.34000 38.37822 -36.04841 -41.54711 -67.05540 -76.74618 -148.94065 -332.55813 -260.33658 -512.93053 -939.32276 -1278.94738 -1449.28454 -1726.82681 -1977.73288 -2285.33120 -3428.15155 -4699.45918 -5928.41229 -7597.49006 -8200.17294 -8857.80294 -9537.23836 -9889.05050 -10449.33553 -10878.14920 -10968.90027 -10922.93797 -10866.55317 -10757.71845 -9515.76328 -5946.06032 -4309.24982 -3466.76410 -3363.58251 -3375.45494 -3393.22983 -3407.95657 -3427.57297 -3446.70709 -3470.33640 -3492.03860 -3515.01715 -3535.64204 -3553.23605 -3563.77513 -3573.40504 -3586.27807 -3593.85319 -3598.36719 -3600.92812 -3604.49043 -3604.59043
-3911.52483 -3911.42483 -3914.06171 -3914.83602 -3919.04300 -3919.86460 -3924.37952 -3925.21022 -3926.91495 -3928.27217 -3932.41409 -3933.69896 -3935.08993 -3935.89320 -3936.51704 -3936.11497 -3936.02872 -3936.00953 -3935.68403 -3943.74131 -3964.70950 -4106.13518 -4552.20223 -5088.47909 -5527.21529 -5768.40208 -5819.11876 -5822.41803 -5819.79146 -5818.43592 -5818.36869 -5812.13037 -5813.10525 -5813.64800 -5801.42261 -5771.32697 -5721.60603 -5652.24610 -5742.19683 -5741.49509 -5759.55444 -5699.13724 -5750.66898 -5746.89643 -5743.48368 -5740.45163 -5731.30997 -5722.23930 -5714.15716 -5709.43430 -5691.31838 -5681.48657 -5661.36099 -5635.30998 -5614.51007 -5591.13198 -5570.26988 -5559.86386 -5532.50033 -5523.70322 -5503.64090 -5486.51671 -5469.22120 -5448.38482 -5428.07654 -5410.36571 -5394.94179 -5370.51871 -5348.87155 -5331.89111 -5307.27711 -5249.61626 -5069.42876 -4829.58020 -4826.13437 -4519.29492 -3964.43529 -3243.19135 -2672.23427 -1568.99423 -825.92980 -569.16425 -348.05324 -144.00102 -127.70228 -113.74947 -43.14720 -6.37967 20.09711 62.56201 77.75772 47.90609 -2.94535 22.76702 -13.68182 -20.41789 -79.96969 -105.94402 -114.44904 -205.90808 -950.66078 -1216.02487 -1143.63593 -1460.32292 -1872.70175 -2571.39847 -3768.09198 -4175.22277 -4975.29403 -6579.48291 -7381.23275 -8367.90268 -9115.37740 -9956.27389 -10642.37206 -10784.74389 -10825.57616 -10689.43912 -10684.86753 -10579.56587 -9207.24672 -5717.93872 -3882.89442 -3393.24328 -3342.07689 -3369.40240 -3387.52555 -3403.53607 -3424.91789 -3438.84463 -3452.16566 -3480.42159 -3500.74659 -3517.69411 -3542.88721 -3553.81319 -3566.01918 -3574.57223 -3579.94075 -3585.54765 -3589.16989 -3592.82035 -3592.92035
-3920.00391 -3919.90391 -3921.73508 -3925.70543 -3925.79358 -3926.89939 -3930.46204 -3932.25013 -3937.55818 -3938.04853 -3940.33324 -3940.16411 -3942.10044 -3943.22986 -3943.75410 -3946.11513 -3943.37899 -3942.44666 -3941.64198 -3945.98335 -3964.55291 -4005.04825 -4214.65061 -4724.01128 -5394.32109 -5748.50199 -5808.92885 -5823.55504 -5822.24032 -5819.31907 -5814.63044 -5813.90159 -5804.91077 -5803.13460 -5715.85753 -5687.64128 -5498.15678 -5371.98514 -5458.43378 -5247.11510 -5525.26708 -5542.16456 -5601.91941 -5712.50250 -5733.39257 -5733.95117 -5728.67435 -5724.91259 -5713.84235 -5705.55620 -5684.41081 -5678.24546 -5655.15266 -5636.74401 -5612.01851 -5597.24938 -5574.01886 -5560.18041 -5541.25717 -5522.82204 -5503.46981 -5478.44247 -5459.89446 -5444.09979 -5430.20429 -5405.19293 -5387.62679 -5371.89985 -5340.90605 -5317.82362 -5272.72153 -5178.83485 -4978.19094 -4759.79921 -4503.16567 -4275.63642 -3741.31071 -2167.50593 -1135.45973 -452.98543 -213.81344 -180.91472 -123.06737 -118.41377 -93.25476 -51.96796 -23.74960 25.84913 60.48195 95.88632 96.16703 52.17129 75.81835 56.80261 29.99655 19.04903 -24.82091 -51.73326 -79.59890 -133.33331 -587.22707 -1259.56896 -1346.77829 -1518.09656 -1684.02605 -1944.03259 -2720.25480 -2901.26317 -3520.68699 -4677.38118 -6742.21980 -7694.93613 -8632.88103 -9608.57059 -10487.86757 -10628.71491 -10616.05296 -10411.61829 -10257.70341 -10247.16696 -8534.99220 -6187.13166 -3717.42377 -3394.81082 -3328.22878 -3342.65080 -3378.59710 -3394.82083 -3408.29427 -3431.75253 -3447.66375 -3465.53767 -3486.24383 -3508.11363 -3529.51930 -3539.12346 -3553.60258 -3561.67184 -3571.76836 -3575.97792 -3579.91212 -3582.07549 -3582.17549
-3932.39580 -3932.29580 -3935.70922 -3934.11344 -3936.42122 -3941.45436 -3943.39272 -3941.90255 -3941.98247 -3944.47823 -3944.09067 -3946.60925 -3948.43345 -3948.12175 -3950.40458 -3948.31828 -3950.57296 -3947.05703 -3947.81871 -3950.87074 -3958.69182 -3985.08497 -4095.14062 -4431.47021 -5117.97365 -5610.02599 -5743.93592 -5793.37503 -5810.44418 -5819.17623 -5801.65987 -5733.07379 -5647.50429 -5579.48782 -5508.39475 -5133.38018 -4783.18080 -4396.33583 -3898.50791 -4454.28300 -5104.07628 -4727.38136 -5481.91440 -5471.68040 -5511.17427 -5609.24485 -5664.66921 -5678.98654 -5681.12583 -5677.58528 -5681.99756 -5669.44119 -5659.42532 -5639.97191 -5618.47708 -5594.25022 -5579.38824 -5562.63998 -5537.72072 -5519.83528 -5504.29322 -5469.79242 -5445.62244 -5435.56197 -5416.19188 -5404.84111 -5374.79761 -5303.01562 -5318.20050 -5300.63993 -5245.04652 -5225.28689 -5090.99966 -4874.02806 -4447.60033 -4159.54601 -2743.15772 -1737.16597 -687.71650 -209.53803 -155.02813 -155.51467 -96.05110 -28.66059 24.36371 7.40880 -3.90005 65.20911 114.68972 141.16787 122.89346 97.33492 125.74954 121.77340 119.04030 70.17748 5.91601 -24.70902 -72.49038 -82.56815 -516.44581 -1202.11601 -1469.25899 -1773.67634 -1880.23384 -1858.42080 -1859.22944 -1994.95362 -2714.57434 -3876.46748 -4842.15794 -5866.10117 -7961.89327 -9542.13443 -10279.95228 -10419.21830 -10219.66580 -10026.02799 -9620.66359 -9667.79218 -8728.64491 -5544.40231 -3920.86170 -3314.93047 -3297.05409 -3326.57916 -3368.72375 -3386.79150 -3405.76532 -3417.96954 -3436.40109 -3453.17313 -3472.34058 -3496.94988 -3512.32092 -3531.89070 -3543.25323 -3551.63904 -3562.52813 -3564.99559 -3569.00361 -3572.16273 -3572.26273
-3972.46853 -3972.36853 -3971.20734 -3980.99122 -3976.70827 -3978.22601 -3956.65197 -3952.75677 -3959.18595 -3958.39960 -3953.12706 -3951.82748 -3953.83948 -3958.42250 -3957.97611 -3960.75116 -3962.72880 -3961.42180 -3956.70529 -3963.80581 -3966.76803 -3981.50298 -4028.02238 -4202.70222 -4828.36737 -5009.81566 -5392.30115 -5735.84615 -5665.30686 -5753.11095 -5756.96135 -5506.37291 -5180.22947 -4716.42025 -4421.04056 -3909.23846 -3381.90021 -3287.07127 -3219.51873 -3479.13198 -3071.16616 -3881.12986 -4313.26224 -4365.35733 -5140.76402 -5043.22390 -5391.32257 -5591.71444 -5619.43672 -5621.14325 -5654.48284 -5635.27412 -5641.19403 -5630.04205 -5621.49515 -5601.78635 -5584.28620 -5560.50513 -5537.20790 -5518.22281 -5500.37648 -5462.41596 -5427.16438 -5423.13492 -5403.63065 -5320.88953 -5306.70850 -5226.15727 -5240.80618 -5208.62123 -5172.35152 -5146.77563 -5068.71070 -4960.28569 -4123.09482 -3185.55156 -1552.12604 -927.51599 -206.05998 -136.31246 -61.85302 -46.11458 -20.79903 7.05625 56.70576 86.43789 41.41116 93.86135 124.53797 199.30649 213.57219 193.80801 181.03985 202.61123 182.00176 90.74113 61.67670 31.49215 -56.38016 -71.55494 -199.16763 -350.28046 -790.40261 -1406.37256 -1665.22335 -2038.88334 -2030.88045 -1913.31062 -2111.93489 -2237.58092 -3755.81716 -4616.43567 -6781.32516 -8540.59327 -9740.81921 -10007.83656 -9558.46750 -9517.88582 -9039.24949 -8845.54628 -8316.23519 -4836.53659 -3749.94606 -3313.23202 -3262.28631 -3317.23321 -3353.90694 -3380.32070 -3390.13952 -3407.36211 -3427.77299 -3441.06131 -3460.21341 -3484.04161 -3500.24359 -3517.85762 -3531.02018 -3540.58028 -3550.82343 -3558.94812 -3560.52517 -3562.84587 -3562.94587
-4069.79626 -4069.69626 -4084.24619 -4056.94381 -4081.44965 -4030.72573 -4010.62029 -3999.89993 -3990.09393 -3977.66987 -3980.01681 -3965.48170 -3978.33540 -3976.58634 -3982.54868 -3997.06468 -3991.87669 -4002.77168 -3989.46501 -3988.54823 -3988.15814 -3986.27895 -3975.04052 -4122.14473 -4331.88561 -4027.15989 -4337.15972 -5016.76638 -5324.66433 -5525.38683 -5374.27420 -4902.71457 -4604.11238 -3978.05256 -3375.71516 -2941.68657 -2467.78661 -2366.35732 -2421.24300 -2412.59844 -2556.90008 -2591.36726 -2878.42154 -3290.21908 -3714.63516 -4282.34523 -4716.49515 -5104.39690 -5457.87776 -5458.56554 -5349.00588 -5482.46667 -5497.60287 -5571.78687 -5623.71405 -5588.15812 -5582.75257 -5559.63497 -5535.73371 -5505.28642 -5489.02718 -5466.87573 -5436.69860 -5393.94683 -5377.00610 -5220.04511 -5018.54245 -5088.94141 -4799.83965 -4838.93542 -4921.39160 -5009.28261 -4378.70848 -4025.88625 -3693.91985 -1889.14455 -986.36819 -544.44671 -123.40254 -58.46686 -29.16210 13.12716 26.04618 21.86277 92.11551 137.83277 109.92261 160.25775 142.64828 232.81044 283.08470 244.43768 247.08083 281.07831 213.14082 220.48260 91.43000 72.86134 13.80998 -60.61985 -92.17355 -138.69635 -391.86053 -771.00243 -1171.72561 -2077.77753 -2466.70639 -2760.80592 -2217.44075 -2279.71949 -2805.03478 -4769.96609 -6730.12657 -7717.75337 -8765.59121 -9129.44589 -8994.58371 -8818.47802 -8248.85655 -7982.79983 -7627.38648 -5312.98287 -3707.64803 -3289.88713 -3259.25865 -3299.93526 -3346.30268 -3370.87712 -3384.61074 -3396.95470 -3408.02260 -3430.69082 -3451.32829 -3471.78609 -3487.13514 -3506.56993 -3521.98061 -3531.45072 -3541.39189 -3547.40119 -3551.03324 -3553.93598 -3554.03598
-4245.32784 -4245.22784 -4228.56285 -4197.35682 -4192.68932 -4167.98726 -4091.74172 -4083.18930 -4085.01529 -4073.10780 -4044.95595 -4016.17181 -4016.66702 -4053.48081 -4046.61822 -4077.20495 -4088.86736 -4111.16328 -4068.47784 -4089.69228 -4039.01889 -4012.16215 -3981.89443 -3527.70122 -3247.78957 -3117.30115 -3640.19923 -3724.10608 -4114.45481 -4519.88558 -4498.88307 -3871.55432 -3142.06137 -2516.75926 -2274.91509 -2147.33957 -1860.64125 -1893.56586 -1981.28131 -1994.52100 -2090.91633 -2133.73262 -2306.49422 -2613.87502 -2949.98634 -3383.43800 -3934.98011 -4425.41985 -4934.22373 -4920.51738 -5015.61979 -5163.86550 -5157.79690 -5412.65828 -5505.36367 -5541.53450 -5557.34851 -5546.11322 -5542.11902 -5495.82860 -5477.99571 -5453.45724 -5403.20011 -5288.34459 -5091.96217 -4994.54086 -4657.15405 -4824.50215 -4489.80213 -4405.60194 -4499.96321 -4556.61442 -2872.23827 -2222.01029 -1615.24898 -986.20529 -520.29982 -143.45387 -52.97681 -6.46924 20.27047 47.74749 67.32021 32.69207 73.65522 145.77458 156.13603 199.08910 179.91617 246.44817 323.60005 284.79494 331.85529 317.17566 285.10041 228.50077 165.99042 74.92742 56.91671 -37.09123 -56.47400 -98.08441 -335.86689 -498.28912 -783.24838 -1521.13477 -2805.70163 -2997.75556 -2729.22675 -2579.21935 -3134.28848 -5020.99118 -6265.59398 -6498.22785 -7446.48091 -8454.76341 -8616.83095 -8354.67568 -7792.98483 -7499.95000 -6810.20841 -5897.99728 -3842.19913 -3311.80401 -3241.08411 -3289.19048 -3335.95366 -3357.29531 -3374.80102 -3386.00077 -3403.93904 -3414.59198 -3433.81190 -3456.38517 -3476.08916 -3491.57907 -3508.96448 -3524.61761 -3532.56414 -3540.87166 -3542.32046 -3545.34587 -3545.44587
-4473.27556 -4473.17556 -4406.68989 -4410.89327 -4339.66927 -4321.87767 -4281.16960 -4294.75511 -4214.71704 -4225.81853 -4177.22454 -4126.73848 -4212.94501 -4184.91295 -4223.00426 -4194.99261 -4189.13414 -4233.61939 -4238.43907 -4214.46423 -4124.91170 -4044.39570 -3810.90084 -3221.53014 -2594.23984 -2339.37726 -2566.35377 -2816.25984 -3021.47234 -3366.50133 -3593.36157 -3586.02616 -2748.75978 -2239.55829 -1944.25666 -1620.29701 -1317.53139 -1138.88267 -1266.73525 -1139.18466 -1178.10627 -1484.84901 -2248.08330 -2342.41417 -2390.74619 -2652.29192 -2997.55125 -3425.33661 -3881.55648 -3961.10438 -4498.17680 -4317.49567 -4600.21366 -4786.71954 -5186.24108 -5528.51935 -5498.74110 -5522.97215 -5515.89275 -5446.98885 -5441.42063 -5400.59580 -5032.73161 -4895.68023 -4688.34478 -4461.93527 -4417.95052 -4218.67913 -3842.64099 -3530.87456 -3586.98842 -3200.09291 -2202.97954 -804.12892 -477.96455 -383.92904 -131.70565 -103.38484 -26.55623 41.19196 73.41178 105.65474 98.12837 132.08562 151.23929 171.55871 221.00273 248.00501 221.37390 232.64822 332.35389 346.07289 357.87151 303.30313 237.22043 189.24940 145.82207 125.02691 72.83306 -5.42091 -36.82104 -91.37168 -156.22355 -323.78507 -681.38039 -1170.21106 -1844.12128 -2937.49300 -3389.25313 -3398.25445 -3404.37059 -4553.56665 -4496.32126 -5104.23151 -6217.87085 -7229.58510 -7478.11489 -7254.82529 -6949.24174 -6503.55681 -6048.71603 -5271.50651 -4069.60128 -3339.99114 -3227.00874 -3252.62003 -3321.15413 -3346.38572 -3363.87880 -3373.41273 -3391.51777 -3405.63041 -3429.35797 -3445.91830 -3459.93006 -3483.77815 -3499.31320 -3511.52824 -3522.28727 -3527.94713 -3534.00643 -3536.96708 -3537.06708
-4653.95785 -4653.85785 -4602.02990 -4562.70701 -4565.67624 -4484.95701 -4506.36594 -4413.10061 -4399.27034 -4390.91792 -4365.26172 -4316.19790 -4320.92916 -4377.21612 -4351.05233 -4362.82547 -4492.57895 -4400.79147 -4431.19871 -4395.70557 -4315.57219 -4061.96925 -3737.15796 -2951.90275 -2281.86339 -2182.48744 -2216.27239 -2335.52955 -2342.92783 -2514.19182 -2746.11209 -2630.50512 -2401.71239 -1877.94556 -1492.82726 -953.83203 -553.76049 -515.67988 -598.83674 -645.80988 -639.18272 -1092.70911 -1525.03251 -1633.59448 -1667.45856 -2023.48945 -2069.15768 -2477.54885 -3008.93260 -3029.27960 -3499.70248 -3440.98705 -3644.97165 -4077.56710 -4166.59707 -4897.09386 -5297.46487 -5323.90758 -5104.85402 -5121.81016 -5036.08033 -5066.45400 -4658.70927 -4136.63069 -4221.54826 -4000.10323 -3669.57856 -3789.98328 -3180.34521 -2519.15222 -2249.23105 -2171.23734 -1182.13259 -464.96673 -164.22341 -112.51077 -69.58563 -18.57452 8.54967 34.66300 107.15254 151.09476 159.68269 181.10828 166.76910 182.22380 233.75303 284.29021 286.26997 277.67853 306.89191 397.97506 358.97895 290.43786 246.39808 213.08483 196.55111 176.91781 105.32989 24.20602 -36.01566 -88.30046 -121.92576 -199.79053 -326.59858 -658.45159 -1555.44318 -3226.45727 -3474.80926 -3704.03988 -3674.49683 -3717.69737 -3909.51061 -4623.67081 -5403.52254 -5731.53594 -6307.02705 -6892.19621 -6028.93752 -5325.22514 -5257.35549 -4953.43673 -4228.84127 -3415.30297 -3219.29841 -3236.84907 -3308.41780 -3336.42960 -3353.27453 -3365.11962 -3380.29853 -3390.35259 -3416.17720 -3434.13788 -3453.63736 -3466.84913 -3486.22171 -3499.19854 -3510.57668 -3519.86915 -3526.70216 -3528.77855 -3528.87855
-4734.28185 -4734.18185 -4718.93707 -4696.55591 -4715.14862 -4674.42708 -4654.47286 -4621.83269 -4634.45642 -4516.23985 -4576.14805 -4551.44774 -4562.76199 -4566.92546 -4579.47601 -4622.43741 -4588.07448 -4643.96881 -4664.48422 -4606.15546 -4462.08285 -4317.85782 -3764.11443 -2930.35993 -2397.46491 -2266.97713 -2274.25325 -2300.82628 -2268.19534 -2213.78749 -2364.48742 -2282.36760 -1974.00510 -1569.31965 -816.53671 -481.37805 -269.25263 -251.94229 -261.87140 -290.01172 -365.09570 -326.57228 -591.82104 -754.91329 -844.35720 -1068.06422 -1113.83859 -1978.95921 -2061.51977 -2257.49430 -2691.84688 -2664.74639 -2616.58527 -2551.78079 -3326.59933 -3689.99625 -4399.04589 -4520.42212 -4520.32573 -4658.19737 -4495.56845 -4061.59947 -3799.20717 -3538.02213 -3537.41680 -3275.12465 -2904.90193 -3192.54441 -2659.08178 -1530.27373 -907.39087 -816.85662 -300.22316 -213.01498 -117.59491 -70.04478 -33.23723 24.17666 47.62574 73.01949 100.68290 163.19270 200.14976 235.94326 229.71149 211.86277 254.37500 315.60269 344.31607 348.69054 315.87449 388.21151 390.70308 318.48591 306.56380 293.73459 212.57950 159.73437 122.59259 87.53808 -12.79438 -61.32133 -102.88940 -132.41772 -151.30968 -330.92220 -769.58179 -2045.52320 -3504.11062 -3862.57126 -3817.21523 -3913.58644 -4068.20205 -4475.60832 -4661.60497 -4721.86159 -5027.88955 -5025.96504 -4232.56196 -4436.74006 -4597.24275 -4310.46666 -4085.60417 -3609.94055 -3279.43413 -3239.91949 -3278.91987 -3316.21734 -3337.19930 -3353.99752 -3369.25030 -3381.04207 -3400.10183 -3418.01484 -3434.98732 -3450.94533 -3470.23955 -3490.42480 -3500.33780 -3510.28305 -3516.08784 -3520.60736 -3520.70736
-4758.16031 -4758.06031 -4756.32013 -4753.86989 -4754.53078 -4739.38346 -4725.15743 -4716.44738 -4724.55986 -4713.85661 -4675.24332 -4717.58957 -4700.55256 -4716.68346 -4732.69659 -4708.40744 -4739.17010 -4747.74767 -4741.91190 -4694.39562 -4625.73534 -4485.47797 -4072.80639 -3386.13082 -2900.10804 -2719.33089 -2805.68068 -2875.29302 -2328.83005 -2290.61052 -2319.04337 -2250.06366 -2021.41671 -973.37441 -532.93372 -378.57225 -229.61485 -205.34251 -195.51474 -196.23457 -210.02166 -219.21969 -231.84792 -240.35723 -203.68725 -231.74789 -365.45198 -840.35603 -670.21087 -972.77178 -1864.06262 -1726.59583 -1806.71493 -2025.41034 -3022.65045 -2997.80449 -3324.00472 -3317.88697 -3126.69985 -3167.33688 -3365.95622 -3352.40950 -3173.24664 -2806.54367 -2685.39281 -2364.90405 -2225.50434 -2038.77813 -1637.36628 -1028.75796 -324.80928 -238.84115 -123.34817 -111.98150 -64.63021 34.63817 99.79804 66.02157 142.98623 160.20330 143.82122 127.59158 187.87208 241.10787 274.01165 267.14361 281.19897 313.39281 374.28291 392.90689 375.89639 386.90286 405.05496 371.15152 320.49705 296.53108 240.06699 204.24786 118.99083 90.03221 76.16644 12.74981 -46.36627 -100.41809 -124.31223 -230.50494 -443.12253 -1691.70821 -3094.25712 -3937.92434 -3917.66518 -4009.88106 -4220.31086 -4397.44270 -4275.04337 -4643.04726 -4588.51730 -3736.85306 -3374.42367 -3798.25754 -4009.12476 -3931.50336 -3838.96750 -3651.69375 -3391.42474 -3239.82834 -3260.77791 -3312.47512 -3333.20498 -3342.34443 -3358.23636 -3372.35127 -3391.10285 -3407.01548 -3421.22555 -3438.63774 -3458.26802 -3479.11255 -3489.82632 -3496.02163 -3507.38628 -3512.10999 -3512.20999
-4764.06379 -4763.96379 -4765.29000 -4769.36991 -4770.42155 -4769.80066 -4770.00102 -4773.82669 -4772.87184 -4761.96949 -4767.10117 -4764.30698 -4768.63104 -4769.54164 -4776.78812 -4777.21225 -4776.11774 -4774.73714 -4776.34918 -4777.08338 -4718.54018 -4643.20841 -4485.56556 -3967.53557 -3650.19681 -3403.99983 -3650.96013 -3637.59065 -3260.31369 -2798.60016 -2682.42103 -2417.08131 -1885.50593 -938.10202 -497.57440 -317.28533 -224.68449 -177.61398 -131.82552 -123.29063 -121.32499 -148.87937 -163.07399 -169.10880 -162.58320 -183.18940 -250.92281 -207.84526 -200.23842 -331.92596 -718.36243 -702.01710 -1112.83007 -1269.99705 -1385.28977 -2487.29105 -2630.92283 -2620.90674 -2219.91553 -2233.69307 -2353.06299 -2602.72299 -2629.17829 -2623.87789 -2319.39753 -1973.27721 -1107.09846 -686.79031 -606.80284 -427.94288 -180.85348 -176.03438 -80.90822 -69.94434 -3.91812 145.56529 315.97473 170.03952 108.32139 187.76301 219.91485 193.19446 250.10907 249.49837 312.69397 326.19844 353.58232 364.03984 393.50550 414.58886 412.32367 422.61721 424.70096 380.63148 324.14467 284.96928 216.43145 172.13154 136.14405 168.11797 102.48978 28.83260 9.94184 -47.28634 -98.31515 -168.45504 -312.96157 -1156.17988 -2486.35756 -3625.49605 -4050.30284 -4148.93891 -4327.45687 -4484.68725 -4524.37592 -4529.38470 -4140.53260 -3555.74963 -3296.56784 -3284.07398 -3501.29857 -3729.59773 -3700.90036 -3566.01052 -3362.96668 -3240.71007 -3258.24864 -3285.75526 -3314.64512 -3335.20928 -3348.10506 -3355.86329 -3379.97019 -3398.39387 -3412.75133 -3431.46258 -3445.12625 -3465.68376 -3479.61777 -3490.52126 -3498.32465 -3503.35903 -3503.45903
-4770.63755 -4770.53755 -4771.82651 -4774.93762 -4776.97401 -4778.60420 -4778.18979 -4779.20556 -4780.78085 -4781.75100 -4781.41174 -4782.19818 -4781.56348 -4782.38357 -4780.54419 -4781.55937 -4781.42233 -4777.28272 -4779.01635 -4777.72601 -4776.94377 -4766.11411 -4655.74334 -4369.24335 -4245.53879 -4291.96374 -4363.51640 -4312.31988 -3867.79938 -3334.43822 -2724.77566 -2422.89887 -1224.92652 -531.19634 -425.63769 -294.10549 -245.90392 -171.04842 -101.03227 -84.29805 -81.21404 -78.64575 -112.40994 -99.68286 -118.61966 -114.42581 -134.21887 -137.24621 -137.67131 -125.79684 -188.34823 -149.68984 -168.37431 -561.61527 -696.83573 -1205.00363 -1492.49944 -1587.39163 -1630.40023 -1716.33634 -1894.78459 -1906.31347 -2218.25600 -1911.40603 -1857.22363 -972.16578 -448.01378 -335.05189 -147.70996 -119.84889 -112.35113 -101.68709 -56.18158 18.00790 40.65088 232.72261 384.60402 381.44781 107.58936 170.52251 250.69520 271.04471 264.48127 279.46581 323.17416 357.29075 384.21814 402.45987 404.10205 465.78586 465.96176 477.75428 397.64848 361.67307 325.68310 288.23561 252.52880 219.22250 238.70019 203.98269 52.17798 49.86523 56.97054 -9.81046 -93.41522 -136.82169 -358.62564 -589.91171 -1706.42102 -3207.12998 -3755.10670 -4069.09136 -4140.38448 -4213.84476 -4550.67591 -4613.83285 -4391.60686 -4241.13363 -3658.66528 -3370.82759 -3350.60792 -3441.13217 -3487.06331 -3468.99073 -3383.09865 -3293.43135 -3257.91725 -3291.57122 -3307.13247 -3326.02002 -3336.60784 -3353.68809 -3364.28033 -3381.03614 -3402.50324 -3422.48216 -3435.54990 -3450.55575 -3461.21917 -3477.49626 -3491.04285 -3494.47861 -3494.57861
-4778.64532 -4778.54532 -4779.43903 -4782.71505 -4785.64322 -4787.15888 -4787.83416 -4788.15101 -4787.96186 -4788.61539 -4789.04057 -4789.42891 -4788.61752 -4789.29082 -4789.26634 -4788.58473 -4786.62184 -4786.57728 -4786.18008 -4788.00314 -4786.95252 -4781.52381 -4768.02143 -4740.55112 -4675.38008 -4683.55441 -4706.35297 -4647.10147 -4682.60757 -4525.10109 -2094.31978 -1513.72707 -492.53111 -415.73066 -301.46841 -259.08908 -217.97458 -157.27562 -105.61908 -76.61556 -54.24513 -60.76285 -78.68386 -70.08421 -69.16349 -73.51069 -106.66355 -103.96910 -84.54449 -69.39997 -86.65335 -108.80442 -116.70816 -165.05220 -266.98045 -428.58448 -599.43786 -627.98545 -804.13393 -844.36562 -1167.90827 -1392.54568 -1331.53164 -1260.68771 -830.26532 -378.89486 -149.07683 -139.24632 -98.18337 -63.65872 -36.75184 -26.53743 19.84358 62.44218 151.91022 199.19912 433.20188 533.02382 334.97807 189.92575 262.62434 299.99064 334.37493 337.18573 341.71354 365.21255 389.44639 433.16867 452.38858 496.68363 531.86259 498.54186 410.49278 350.35972 320.28000 310.29479 286.28296 230.40554 201.65174 145.50310 103.10683 107.09979 71.78455 8.71648 -29.31218 -81.21324 -113.82036 -341.66947 -486.13613 -1981.64760 -3111.19840 -3884.80240 -3896.88688 -3955.57014 -4375.40436 -4600.68688 -4759.97968 -4517.51772 -4429.31335 -3990.87441 -3623.52886 -3333.96704 -3374.65443 -3392.90353 -3377.26035 -3307.77884 -3275.64233 -3277.44216 -3300.41314 -3313.38698 -3331.91172 -3339.46299 -3354.56950 -3373.83667 -3386.51279 -3406.33186 -3422.86305 -3444.26225 -3456.54583 -3473.76605 -3481.43003 -3485.29044 -3485.39044
-4786.87299 -4786.77299 -4788.66446 -4789.31041 -4790.09192 -4794.27904 -4793.09519 -4794.03165 -4795.99799 -4795.52852 -4797.02819 -4795.95585 -4794.24778 -4795.18285 -4794.74646 -4795.66267 -4794.98550 -4794.35710 -4794.07349 -4793.83993 -4792.92675 -4792.47856 -4785.37225 -4771.55174 -4755.41198 -4739.31498 -4776.66012 -4954.05728 -5113.02766 -4468.27930 -1825.08618 -571.71721 -405.91048 -317.74719 -264.67497 -229.83266 -188.74208 -128.50493 -100.87287 -70.93113 -20.91399 -39.66729 -39.38021 -38.11748 -52.92799 -39.54928 -51.96959 -49.90874 -59.10952 -52.52874 -43.75982 -53.53853 -89.81474 -131.07648 -140.19508 -149.71340 -146.49082 -194.54306 -219.93485 -256.85407 -304.41769 -485.25260 -580.82784 -594.39821 -292.80444 -180.77079 -99.47348 -98.66302 -77.36849 -12.47990 12.03788 21.85253 186.18426 261.04784 282.24879 269.82855 393.71175 510.14156 557.45351 305.04737 258.99306 310.44589 373.18755 394.79905 384.12568 416.57536 457.38819 477.04316 491.72770 502.82661 529.70832 488.19987 431.34001 372.58792 348.51292 352.34788 277.86008 269.13316 208.45056 209.73638 211.01114 140.43590 109.24588 44.24719 14.56084 -61.34215 -82.44105 -127.67940 -295.39225 -432.78826 -3383.98017 -3987.09553 -3894.72028 -3847.60003 -4462.67404 -4765.60417 -4773.35686 -4781.32850 -4754.74939 -4524.17715 -4197.48089 -3581.30416 -3224.22508 -3350.02531 -3345.72033 -3321.90723 -3289.31333 -3284.29047 -3296.51674 -3308.04102 -3317.08210 -3327.58090 -3345.19165 -3357.94051 -3381.69415 -3397.47776 -3412.69637 -3431.58091 -3447.29725 -3457.56327 -3465.99250 -3475.68867 -3475.78867
-4795.07450 -4794.97450 -4795.68566 -4798.04232 -4799.51431 -4800.27432 -4801.99254 -4804.17723 -4801.90545 -4802.79543 -4801.78148 -4803.37396 -4803.43868 -4801.26715 -4802.50101 -4802.26102 -4801.58976 -4801.47697 -4800.24612 -4799.09751 -4799.59914 -4797.55349 -4789.36514 -4780.22841 -4760.59384 -4764.25668 -4846.98806 -5039.32885 -5228.72691 -4428.58428 -1639.58310 -522.62733 -357.12012 -293.28027 -238.17840 -195.91687 -143.42174 -122.01418 -83.50994 -46.78126 -3.87845 32.52607 31.76467 -7.10454 27.60752 44.50415 81.84640 29.57640 -14.28783 -20.28550 -12.02129 -33.80062 -61.31776 -57.37680 -80.64496 -101.12770 -108.98329 -117.04913 -130.29527 -147.99781 -152.14297 -186.41772 -185.65325 -184.96132 -125.67386 -99.50358 -49.90028 -36.55034 -22.79996 25.37513 69.19747 42.61529 160.43509 277.40632 311.23202 384.90004 494.49131 619.44499 573.87461 410.42246 298.68345 348.41864 390.99974 428.05084 441.22424 438.86910 485.21803 499.67309 530.60979 544.74581 552.27141 491.69106 458.12668 420.88304 382.31999 379.70474 351.38208 313.73424 252.51053 265.91665 236.00536 168.92045 160.69739 114.30789 23.74003 -14.37904 -36.12982 -71.21893 -168.10256 -374.15745 -2511.39877 -3427.42425 -3617.27648 -3730.12767 -4220.37801 -4543.24227 -4781.46427 -4781.02278 -4783.72834 -4783.73501 -4367.21549 -3513.53576 -3050.38102 -3068.16705 -3313.12551 -3297.96416 -3290.01177 -3284.17386 -3290.07484 -3302.66548 -3312.07600 -3323.62139 -3335.60128 -3348.71454 -3370.38898 -3386.38366 -3399.67892 -3421.87142 -3436.63887 -3448.70544 -3460.28951 -3465.90201 -3466.00201
-4803.19141 -4803.09141 -4804.91436 -4806.70629 -4808.61592 -4810.44269 -4806.94628 -4811.57523 -4809.20501 -4813.27423 -4809.78905 -4810.43777 -4811.36194 -4809.38628 -4809.32126 -4809.14746 -4808.58205 -4807.35655 -4805.81208 -4806.84116 -4804.46944 -4800.70102 -4792.69706 -4775.50077 -4762.65540 -4761.39510 -4896.97089 -5138.61036 -4601.01474 -2399.86224 -1501.59060 -510.15701 -331.73349 -259.82600 -209.88711 -170.68476 -147.89568 -105.70848 -60.80253 -34.86808 -8.53816 56.38469 86.24512 79.72968 77.44477 130.00756 121.03895 137.13721 17.43728 28.09230 31.78034 0.09527 -26.09794 -27.82596 -46.68313 -56.05123 -72.32651 -68.04882 -67.55877 -88.58388 -90.96847 -82.78699 -86.14147 -99.57810 -102.94520 -64.39268 -34.17208 -22.53451 20.60553 23.50792 148.01992 142.07365 118.70976 229.45042 272.00687 413.79025 492.00899 656.53843 680.18826 443.71674 362.19256 361.64954 400.56701 428.39189 454.56113 461.87097 504.42590 536.15052 560.52395 576.66048 566.53330 492.10009 470.18087 465.62597 429.72826 394.18973 375.82862 336.18502 322.53807 282.98280 258.18689 225.72017 186.49149 117.52640 34.77187 9.97249 -24.49549 -44.24605 -166.00748 -298.19013 -2021.84137 -3103.60105 -3444.43953 -3648.36473 -4136.87480 -4481.20083 -4788.63972 -4786.71344 -4788.43402 -4787.55494 -4438.07762 -3295.75071 -2744.79976 -2806.80455 -3015.58084 -3268.54167 -3286.09166 -3276.17809 -3278.27252 -3296.04432 -3307.21720 -3320.67699 -3327.47693 -3346.04089 -3359.72150 -3383.61735 -3394.18469 -3412.23986 -3427.30453 -3438.22400 -3447.36896 -3455.78515 -3455.88515
-4811.35769 -4811.25769 -4812.64696 -4816.36408 -4814.97973 -4815.76490 -4817.30826 -4818.37907 -4818.87709 -4818.37027 -4818.60702 -4818.72620 -4818.34579 -4816.95732 -4816.92709 -4817.86174 -4816.97615 -4814.73850 -4814.92710 -4811.68337 -4809.22905 -4804.35615 -4791.02207 -4777.72116 -4770.43577 -4807.06471 -4932.43713 -5169.77339 -5031.46111 -2233.74096 -1295.87610 -553.35134 -318.02905 -261.69899 -208.36868 -169.27926 -132.17000 -79.36802 -47.37494 -9.36695 20.66837 66.78830 113.57935 156.31850 166.72100 289.77224 318.23572 219.62631 96.66242 86.26277 59.18888 40.05056 21.90103 21.23240 -14.68506 -23.23416 -35.95205 -42.59986 -57.05684 -62.63130 -66.52507 -65.98083 -52.70074 -53.17176 -58.23871 -20.61465 -7.59289 -9.70868 118.35258 135.50171 162.94018 204.06774 182.50953 176.54582 207.16623 316.81782 408.63489 612.35124 660.43555 604.66262 452.05260 383.36220 445.92313 491.70789 488.55190 526.47573 517.32343 572.95936 586.98723 588.07244 565.21774 559.56008 510.74827 501.14089 450.65433 420.11378 404.16195 384.33516 339.53350 279.67765 214.36301 180.43280 140.81295 77.88488 67.20037 56.09208 9.13425 -36.70961 -80.25690 -191.98179 -1057.34496 -3295.77082 -3684.06977 -3916.67623 -4032.80302 -4450.07550 -4790.46436 -4789.54514 -4789.74603 -4788.47098 -4403.70314 -3331.23120 -2555.91559 -2208.46407 -2723.48928 -3088.56997 -3276.47705 -3276.19622 -3282.99940 -3292.80688 -3302.12764 -3308.65513 -3325.07461 -3335.36414 -3353.92153 -3368.53960 -3384.95190 -3401.23165 -3418.27587 -3424.78184 -3438.26218 -3445.45933 -3445.55933
-4819.58276 -4819.48276 -4821.42541 -4821.86971 -4823.59771 -4823.99470 -4825.10246 -4825.49485 -4826.30128 -4825.05426 -4825.98038 -4826.32578 -4825.19772 -4824.50079 -4824.04545 -4823.27945 -4822.50777 -4823.34271 -4821.32958 -4819.07869 -4814.93148 -4807.04199 -4797.38402 -4781.93226 -4787.55922 -4865.22224 -4969.74522 -5082.86548 -2878.15603 -1262.92351 -608.33206 -416.87784 -295.87336 -252.20338 -178.59707 -137.68742 -129.03612 -79.04397 -48.73396 -1.94901 33.74122 66.42125 100.16843 152.92878 237.64067 342.06089 418.42575 304.76844 204.18192 124.32111 77.86733 66.77230 57.08964 35.58094 31.94107 7.17966 1.98688 -18.51065 -23.35243 -12.69137 -23.85214 -49.79350 -20.90098 -3.33630 17.46278 33.22853 17.23575 41.16760 97.00623 157.67679 231.47830 237.01046 222.66024 216.91613 239.74436 292.02363 358.41917 538.74661 588.52948 513.05572 425.25430 443.92264 474.97760 520.79820 565.01538 580.88452 566.86332 593.89059 611.49209 613.18609 595.22880 569.34452 532.34532 535.15879 478.85458 439.35302 394.02461 353.35669 278.60689 243.47463 222.42052 199.30246 144.98403 122.02505 131.46566 70.56774 26.90397 4.57388 -67.43542 -140.13376 -284.83669 -2904.54216 -3844.88070 -3967.06139 -4138.37675 -4359.97125 -4698.77743 -4789.65667 -4789.02166 -4789.37414 -4397.44451 -3747.63670 -2105.49558 -1898.95148 -2365.10907 -2945.83492 -3228.70237 -3271.88796 -3284.73786 -3294.49450 -3298.22836 -3304.74964 -3317.92353 -3328.47155 -3343.99867 -3365.25426 -3377.04154 -3391.16204 -3410.33235 -3420.40423 -3428.24233 -3434.79935 -3434.89935
-4827.80875 -4827.70875 -4828.33194 -4829.28261 -4830.42278 -4831.94835 -4831.68227 -4833.94068 -4834.11046 -4832.07947 -4832.16259 -4832.00932 -4831.77151 -4830.68259 -4832.34061 -4831.99806 -4831.44863 -4827.79931 -4826.19993 -4823.27861 -4820.71794 -4815.29273 -4809.15216 -4814.53848 -4831.17382 -4979.16601 -4979.15160 -3867.07780 -1832.86410 -754.52281 -470.07515 -336.07839 -291.80213 -245.79615 -182.44274 -133.75258 -93.40245 -75.58462 -16.70288 19.76509 28.50634 56.32137 99.76353 157.13102 284.92968 408.56175 546.81587 420.44985 269.42665 167.51141 130.05654 96.19159 80.23741 54.59759 48.14727 34.57675 32.27252 21.01578 12.85533 6.30632 5.50067 -6.42682 24.92824 15.06878 51.61010 109.62671 76.16762 90.46988 97.69899 143.91609 220.06788 230.34432 232.78326 254.18386 276.19753 323.36563 356.57048 419.16957 455.59298 494.65793 479.38880 477.64451 502.67975 516.67962 565.24013 575.81615 616.86749 632.53933 645.97478 643.36455 638.04529 595.39786 576.05377 556.92052 514.89246 426.39370 382.71239 393.84904 329.30861 309.80877 307.68824 233.20944 192.68436 192.77543 193.76626 113.98161 90.29642 40.25120 -9.51426 -84.85145 -630.29538 -2400.88408 -4011.89038 -4153.60101 -4258.35623 -4476.28260 -4697.96347 -4776.43241 -4780.09555 -4786.53765 -4443.54000 -3699.58517 -1997.46502 -1934.69158 -2093.10915 -2692.49893 -3009.56647 -3258.81984 -3282.98172 -3293.01264 -3294.96922 -3300.98464 -3308.51232 -3318.66032 -3340.88686 -3353.59822 -3364.32468 -3382.34603 -3396.71468 -3407.47379 -3419.21944 -3423.81531 -3423.91531
-4836.13898 -4836.03898 -4836.87579 -4838.45996 -4840.27599 -4841.73428 -4841.60008 -4840.50551 -4841.14210 -4841.28101 -4840.36497 -4841.47594 -4841.36847 -4840.65544 -4840.18648 -4837.25597 -4840.80238 -4836.82606 -4833.21171 -4831.18829 -4832.86385 -4839.18119 -4853.67593 -4850.21460 -4930.17598 -4976.79547 -4817.65335 -2495.14016 -1279.66208 -659.01644 -413.52129 -340.41254 -265.37926 -228.94017 -163.79197 -132.21128 -93.89265 -45.73957 2.46438 10.35282 35.00586 91.24449 115.74634 174.83532 236.67283 316.71724 493.97745 451.89326 311.86840 198.18610 160.55031 125.56326 111.97643 85.01508 73.44186 55.75450 50.80655 48.65693 38.58994 44.44020 28.72708 47.83398 63.05469 54.33033 129.27689 137.33704 106.17036 105.42273 152.43501 165.58324 194.59127 235.72100 261.07360 276.53965 310.03435 336.35264 365.10290 405.95957 460.64273 518.42246 533.36293 508.60784 541.72349 542.88712 568.11147 607.26645 652.71347 664.51763 671.26459 671.68299 654.07193 599.00817 578.35463 566.89967 504.77516 471.83010 443.48390 435.87439 379.81876 327.87323 303.20062 267.55441 268.93562 247.39372 208.59064 154.49562 98.38358 46.66831 3.38823 -57.84118 -236.72618 -2048.59432 -3646.74982 -4329.16677 -4292.96497 -4435.47326 -4682.83891 -4758.67590 -4769.40686 -4764.96570 -4610.88708 -3843.02546 -2089.21481 -1755.57547 -2029.13605 -2346.02518 -2689.58496 -3197.23957 -3268.48202 -3285.28611 -3288.91453 -3296.32126 -3305.31929 -3314.77033 -3326.09528 -3345.10326 -3358.99160 -3375.53426 -3386.07941 -3397.89332 -3406.19465 -3412.75430 -3412.85430
-4844.63076 -4844.53076 -4846.52026 -4845.84160 -4847.44952 -4846.43599 -4849.31593 -4849.53429 -4850.07994 -4850.70495 -4849.78470 -4848.24390 -4848.44181 -4846.17596 -4847.59805 -4847.50922 -4846.03649 -4842.13143 -4841.52824 -4842.07695 -4852.69509 -4890.51026 -4680.99458 -4829.89050 -4905.08267 -4757.16259 -4160.45038 -1888.61699 -1099.16562 -441.88660 -366.44342 -330.02751 -258.05256 -202.40106 -167.43316 -107.02796 -81.68993 -30.51623 2.65208 14.23618 29.16342 105.01379 155.34784 220.83576 252.42374 326.31143 431.40828 411.80266 295.94153 226.67027 179.82193 137.30757 125.66782 94.50312 85.43800 71.96085 70.97816 66.21296 66.20542 89.76543 83.73110 85.96591 132.74406 114.46247 156.50558 158.07225 141.03810 125.90257 165.32077 187.61985 224.35062 250.63296 299.65498 317.95474 352.97947 358.55268 368.09275 434.70817 465.86159 512.12823 573.14534 577.71960 581.36548 592.12816 613.72468 643.18863 679.03390 696.74686 696.97821 695.36202 670.77456 626.89915 613.61155 574.00659 533.21935 511.94377 489.20191 444.48008 416.23473 359.36532 335.85605 314.27509 280.63516 241.87373 182.78636 142.78670 98.49964 35.14364 -37.37777 -81.00182 -199.28382 -876.15713 -2512.60695 -3864.56335 -4447.38657 -4523.90386 -4706.00055 -4745.02620 -4754.56914 -4721.79631 -4424.38107 -3575.32557 -2033.53689 -1553.16144 -1662.69925 -2041.36057 -2639.16456 -3131.84139 -3228.40205 -3260.61852 -3275.67420 -3292.60037 -3302.01222 -3314.63019 -3322.31764 -3337.14483 -3352.24127 -3358.09561 -3377.86969 -3387.09471 -3395.56856 -3401.55960 -3401.65960
-4853.10152 -4853.00152 -4853.89978 -4856.21121 -4855.97222 -4856.27903 -4856.76452 -4856.15520 -4856.79644 -4859.47953 -4856.29272 -4859.07313 -4856.66597 -4858.22727 -4855.09789 -4856.71980 -4854.36790 -4852.52603 -4848.97901 -4851.13814 -4866.55426 -4918.69537 -4332.12464 -4038.98540 -3240.47595 -3730.47267 -2874.15433 -1206.99961 -540.43663 -425.07750 -326.62104 -287.53846 -226.76195 -176.72617 -138.92225 -95.95975 -49.45890 -21.05645 6.61638 29.02762 95.16359 138.68744 137.06770 201.06033 325.58693 387.28613 455.74007 426.11477 334.65266 280.33825 205.83448 156.70699 138.77365 118.87465 96.90020 93.63945 91.43260 93.27564 104.34180 112.96885 123.22942 136.98073 160.82692 146.23191 153.35285 164.14700 175.90790 173.86889 188.10035 212.96627 240.01190 278.11490 296.06651 335.74841 372.83816 396.34001 411.25361 452.75528 491.94707 540.22972 572.16364 605.02156 614.97929 624.64807 664.34438 669.81412 708.41814 731.47513 725.85644 729.99214 723.84441 651.10925 630.20143 578.64413 556.74388 512.61120 502.94067 448.15946 419.83954 409.28537 342.22977 283.57627 237.00039 189.71256 154.93748 106.58500 55.78228 11.88686 -48.57828 -82.37517 -153.53179 -368.50961 -1603.95354 -3634.15914 -4314.40318 -4559.52684 -4705.87439 -4701.23100 -4698.98178 -4691.32976 -4330.42699 -3692.60868 -1950.35445 -1523.01586 -1704.32117 -1989.54830 -2641.38224 -3113.88127 -3189.46155 -3258.63694 -3271.79036 -3287.38311 -3298.95227 -3305.70175 -3314.98846 -3331.67833 -3341.37447 -3353.51984 -3365.19481 -3374.90349 -3381.65722 -3390.13180 -3390.23180
-4861.57366 -4861.47366 -4862.06418 -4863.74515 -4864.52911 -4863.39747 -4865.74633 -4868.33804 -4862.55940 -4863.58689 -4866.84126 -4867.26091 -4867.19886 -4865.66329 -4867.01832 -4863.66982 -4859.16131 -4855.04834 -4848.98241 -4803.00227 -4741.04035 -4625.21262 -3622.21801 -2361.94458 -2425.43571 -2864.38071 -2216.15563 -1264.10013 -464.74529 -360.10170 -298.56452 -249.62781 -207.93913 -168.57199 -135.52167 -94.48426 -23.02953 -4.59060 9.69905 56.48625 147.70348 264.88069 297.88245 264.45538 332.15553 437.67548 442.25519 387.72729 369.08441 282.07341 220.50303 172.03706 150.66557 135.49692 128.26002 114.40048 118.93764 110.76559 128.24234 148.17890 153.37241 161.74847 179.40322 167.86517 171.72580 191.09896 200.95855 204.00908 221.60180 244.99788 251.28587 281.01225 303.55779 323.16427 358.18539 414.42461 436.37435 460.80754 500.25585 538.96558 562.49300 588.61160 614.53370 631.12808 664.35456 686.66460 717.50895 760.07784 758.70513 754.41371 730.49020 681.77888 648.35043 622.22320 571.49407 552.11856 518.83744 469.51734 427.70016 400.93044 345.19504 293.42185 274.43626 207.77925 169.71326 121.13779 44.47785 29.40699 -27.06192 -97.46588 -182.10098 -415.97699 -1440.86868 -2752.48336 -4273.51143 -4492.11306 -4576.35084 -4652.55859 -4669.70771 -4647.85283 -4297.45333 -3084.62498 -2130.46704 -1456.09463 -1551.76028 -1676.60260 -2319.48319 -2840.11089 -3166.40171 -3251.99671 -3270.09270 -3278.74689 -3290.21856 -3300.74095 -3313.15473 -3321.17045 -3336.82602 -3346.45973 -3355.90871 -3368.16442 -3372.73622 -3378.97430 -3379.07430
-4870.05914 -4869.95914 -4870.61442 -4873.40192 -4873.28629 -4873.69121 -4871.80678 -4873.01773 -4875.99076 -4875.26837 -4875.20862 -4874.01915 -4875.35818 -4877.60422 -4872.73891 -4865.10281 -4843.45976 -4801.34802 -4770.85989 -4577.33156 -4324.52716 -3916.52299 -3540.50537 -2138.85278 -1991.88992 -1996.41978 -1768.57590 -1114.37013 -429.78395 -320.18507 -268.60026 -198.84872 -179.72214 -152.35295 -119.82363 -78.31262 -25.10520 2.21650 10.96969 46.91935 202.58221 278.31744 339.76437 370.18069 391.18864 382.77122 367.99522 317.36250 293.77172 264.89702 221.30024 196.19970 180.88500 152.39638 144.18046 138.00980 137.85443 143.43057 154.17640 175.66909 185.96437 223.82944 221.16143 203.34532 202.61252 214.62428 219.49884 221.26218 235.34947 253.23854 265.24514 291.24265 313.11585 336.83911 359.66319 408.26264 425.50390 466.17702 503.01700 516.99481 564.15865 577.01863 611.51167 651.05966 677.17370 697.21332 746.25062 769.82948 783.06260 774.64432 749.04035 705.01302 679.50366 638.98805 601.22368 551.40170 515.28671 468.80973 436.11678 388.00298 355.94933 314.41682 285.84416 240.27243 157.42906 100.73520 73.53815 64.63072 -9.52706 -112.27496 -182.28239 -362.42595 -1489.35601 -2722.54829 -4123.45961 -4292.75768 -4488.90372 -4565.47440 -4556.16185 -4513.45343 -4191.40540 -3487.56845 -1999.88713 -1313.21804 -1332.82886 -1536.47761 -1761.77786 -2678.07667 -3062.79172 -3177.74438 -3270.64187 -3279.82597 -3280.72841 -3298.50514 -3308.03441 -3313.67172 -3327.57000 -3339.61148 -3347.63249 -3356.07141 -3361.70131 -3368.36967 -3368.46967
-4878.40334 -4878.30334 -4879.75555 -4879.07620 -4878.80181 -4881.14273 -4883.11573 -4880.75072 -4881.78814 -4883.38069 -4885.35806 -4885.34918 -4884.38656 -4879.16546 -4863.60951 -4845.29815 -4759.49442 -4638.13249 -4401.96797 -3951.97085 -3574.74798 -3364.93681 -2680.77307 -2210.32929 -1906.73481 -1295.16181 -1005.41618 -484.92832 -449.03755 -296.47822 -233.66340 -196.23768 -161.65434 -124.34999 -93.94014 -45.99994 -13.64477 1.67570 51.14467 60.95830 128.23333 199.60196 305.82336 365.21213 388.15755 370.86082 324.83546 297.84646 271.88577 254.15238 229.05621 205.19184 188.06624 166.67843 154.77009 155.55474 156.42688 163.77731 183.20583 189.71415 201.79924 230.03067 230.76509 223.27991 211.87944 227.40804 225.52016 240.26104 258.70198 267.53512 279.39612 289.46780 308.35596 341.06287 361.86618 401.77897 425.06167 468.78504 490.39069 520.94294 554.26723 569.14731 612.92579 641.16276 679.80776 707.41846 751.48157 771.19558 795.12095 786.34622 744.11016 700.40197 674.26316 625.28546 583.77410 545.36455 512.25430 484.62161 424.04839 398.15658 343.09396 307.46284 279.98556 246.24139 188.25138 128.58903 106.57560 25.31638 -0.09190 -57.37134 -209.09447 -688.44070 -1594.20610 -3322.64616 -4109.04505 -4240.26727 -4489.28669 -4550.12487 -4476.70773 -4418.12134 -4178.41410 -3159.49585 -1741.72752 -1276.22010 -1282.56741 -1612.05028 -2050.86009 -2455.61152 -2957.03180 -3159.66859 -3256.24538 -3249.43909 -3267.53736 -3291.00435 -3302.80808 -3312.36524 -3319.23958 -3331.70596 -3338.64512 -3349.48591 -3352.45233 -3358.42583 -3358.52583
-4886.83388 -4886.73388 -4887.05153 -4889.15934 -4890.26077 -4891.40339 -4890.84441 -4892.79972 -4892.08659 -4893.19221 -4894.55506 -4889.05761 -4878.71544 -4849.61709 -4815.91646 -4529.19117 -4510.46722 -4160.76214 -3641.31535 -3233.25805 -2935.56868 -2124.48987 -2014.95761 -1902.59283 -1504.49633 -837.46244 -621.50477 -448.43380 -396.06699 -320.96424 -212.71363 -178.82484 -138.46837 -103.12394 -56.43413 -44.63394 -29.69372 33.53460 58.52530 82.85458 144.56736 166.65958 249.33340 394.66168 379.28973 335.84031 304.45088 282.67403 266.31998 245.06175 222.83281 212.28227 193.50438 178.11130 169.78863 167.99268 164.55364 189.85579 215.74583 217.40708 221.27155 235.37608 243.81995 247.16301 243.94650 250.01769 248.80080 257.71761 266.93583 278.20482 285.62218 297.39342 316.44852 344.52787 363.86724 392.89687 428.87178 444.71853 489.25325 539.53364 549.39216 593.51978 626.66426 629.76886 677.35941 713.82725 743.08631 773.90785 795.17744 773.13718 734.33140 699.21445 676.65615 616.92998 584.40173 538.52915 506.02889 475.32042 416.80441 390.00041 366.85756 318.97142 278.33484 257.88391 185.67869 154.49346 94.58225 -5.01642 -32.72212 -63.29620 -165.15483 -431.31662 -1197.95915 -3194.78353 -3968.11477 -4073.27556 -4241.06340 -4446.86069 -4428.97306 -4328.13044 -4186.44173 -2922.59370 -1715.96585 -1263.11869 -1557.18943 -1767.06920 -2370.32904 -2764.98802 -3086.40555 -3236.18488 -3239.75111 -3240.84276 -3255.42997 -3290.63533 -3299.38696 -3306.72227 -3311.45118 -3319.45188 -3330.34493 -3336.61742 -3343.79190 -3349.32979 -3349.42979
-4896.35870 -4896.25870 -4897.96642 -4896.67691 -4897.77170 -4900.14990 -4903.49892 -4905.39557 -4909.19416 -4906.78333 -4898.12999 -4872.03488 -4829.52738 -4681.81769 -4522.27226 -4253.35929 -3784.47885 -3461.47577 -3040.07336 -2550.10399 -2157.90042 -2052.45693 -1948.13775 -1545.70165 -993.37902 -627.99106 -493.35149 -394.64917 -361.68750 -292.25792 -215.88012 -153.78584 -127.71131 -105.27543 -59.58432 -47.07025 -23.34730 50.78263 94.26864 113.43965 171.95591 248.99231 270.72012 379.57075 357.81855 301.25802 282.79570 266.06712 247.75078 232.50077 219.71088 214.56824 197.99524 189.56633 183.08290 185.22246 188.59096 211.15675 221.86570 239.40047 251.93372 257.91865 260.13932 263.99422 269.23033 265.47420 268.24496 269.59948 277.27980 286.48213 300.70081 311.47189 333.78864 347.19776 373.88455 402.00169 427.53556 449.44626 489.05388 536.15099 541.16719 588.66367 621.40376 641.57853 692.20253 719.73136 740.66777 777.75370 796.13656 778.95997 756.85137 704.93897 679.01072 629.90445 606.73985 541.34146 497.15893 474.19191 436.03178 384.18036 325.44006 303.29727 276.25993 199.74707 188.03514 168.69474 112.99818 53.89162 5.96016 -26.81201 -91.13385 -277.75118 -1040.37181 -3333.00750 -3834.49093 -3971.16453 -4135.59351 -4259.51024 -4279.04994 -4205.92838 -3726.49224 -2507.33447 -1599.92932 -1306.79094 -1474.63084 -2169.26644 -2528.38868 -2830.33098 -3122.72799 -3213.25188 -3244.04398 -3272.40777 -3274.07470 -3286.56187 -3292.08756 -3301.17488 -3308.65237 -3315.22939 -3322.83214 -3330.08867 -3336.91826 -3341.30821 -3341.40821
-4908.68328 -4908.58328 -4910.46619 -4910.65705 -4909.69794 -4911.88604 -4916.21704 -4919.39412 -4922.30416 -4911.79971 -4895.55335 -4826.06522 -4617.77354 -4563.34883 -4215.46774 -3735.37194 -3453.82063 -3108.29528 -2581.94557 -2328.27329 -2017.01049 -1924.27769 -1817.65910 -1810.10205 -1117.85726 -583.09836 -497.04062 -375.05686 -321.87606 -249.49897 -184.54957 -143.75705 -122.00864 -95.74628 -60.36697 -20.18259 29.53986 78.55098 165.82624 178.57204 198.24143 267.69671 327.30885 369.79095 314.24564 285.64466 277.38783 252.11276 241.11572 229.85509 215.98430 210.09851 201.50505 196.78991 195.50562 196.30915 207.73301 214.58253 237.47774 264.91212 268.33746 289.71668 280.58199 279.09834 282.93141 279.67668 276.86713 286.04378 291.17409 294.68492 307.79380 319.10144 335.76806 364.27953 383.97000 402.03769 424.60819 461.96265 487.46520 523.29403 542.16430 592.06596 612.85610 651.52830 693.91003 716.70006 750.80857 780.90593 791.86376 788.28781 758.07339 714.98020 675.09525 630.40275 599.44901 529.03303 504.95991 469.78593 441.99681 386.72620 338.90789 303.80651 274.20242 237.04823 192.64349 139.69297 93.99422 48.79145 38.22280 -6.40055 -119.06106 -328.74471 -1155.68938 -3361.78128 -3861.68240 -3944.31454 -4045.57024 -4103.89947 -4208.58113 -4125.13644 -3534.29693 -1918.98829 -1281.81196 -1374.88607 -1731.29961 -2333.97886 -2676.59203 -3057.35791 -3202.28469 -3232.32717 -3252.48565 -3268.41461 -3273.13540 -3280.66171 -3288.57706 -3296.13047 -3302.75350 -3308.12707 -3316.88623 -3323.78867 -3328.55867 -3334.26443 -3334.36443
-4925.92651 -4925.82651 -4925.16111 -4924.46354 -4931.43864 -4930.03830 -4933.32039 -4936.90195 -4953.82133 -4961.33479 -4918.32456 -4799.06067 -4487.61099 -4136.39801 -3663.92035 -3509.50562 -3300.28439 -3121.58447 -2597.64585 -2293.31075 -2035.84373 -1856.02455 -1832.36085 -1832.38308 -1313.45023 -540.08438 -452.87363 -365.15148 -302.20426 -252.78249 -174.06526 -129.82337 -119.83848 -99.53559 -14.74807 -10.74839 37.93450 133.26972 238.54135 231.68758 237.29224 324.81180 359.93203 354.62089 298.39330 274.43797 267.03928 241.71148 231.86684 219.81835 211.62071 205.91693 203.71820 201.89099 205.21941 210.33995 213.98140 235.89387 268.48242 270.36444 295.97021 306.67270 307.09937 308.06331 297.92611 292.87337 294.67270 299.88201 297.12661 303.34026 311.44778 318.79884 336.45241 362.52582 378.80849 399.07956 428.53173 455.33824 493.92503 523.70206 539.54534 591.76081 618.95137 660.98752 691.68765 725.07313 760.58581 784.21373 796.94617 790.09342 754.07985 727.57582 686.33928 629.09267 568.89621 530.67688 498.69759 475.70742 459.19656 417.46767 366.55895 331.32392 297.30053 230.68514 194.97227 138.82838 118.41570 28.31909 24.68689 -35.13404 -79.22308 -135.59818 -1387.82077 -2631.94177 -3997.79075 -3961.38116 -3998.97947 -4091.13942 -4083.69707 -4049.39333 -2756.51539 -1264.34688 -1195.44232 -1453.27309 -1974.85467 -2439.84214 -2949.26664 -3162.97807 -3211.88174 -3249.97045 -3258.33875 -3263.38298 -3267.87271 -3275.32224 -3285.02672 -3291.89209 -3297.59019 -3304.10113 -3312.24081 -3315.28321 -3322.70559 -3328.18838 -3328.28838
-4946.91886 -4946.81886 -4947.77201 -4947.15368 -4951.45307 -4957.41409 -5002.59055 -5010.28596 -5031.76861 -5081.90031 -5016.11772 -4861.13091 -4534.89472 -4252.00026 -3819.37264 -3695.87984 -3553.07632 -3245.31950 -2688.88683 -2358.45206 -2064.01043 -1947.55980 -1814.23454 -1709.96224 -1369.21769 -522.81671 -443.80956 -367.78932 -284.63036 -253.82365 -194.70214 -135.66622 -107.62969 -48.53544 5.32762 33.42588 56.39617 125.21936 205.29472 274.96615 339.93061 374.02651 340.05572 298.10597 268.83588 242.19028 236.24323 225.25492 222.86950 207.68807 205.12205 202.75865 200.82616 200.13188 205.89147 214.45781 236.96237 271.58875 282.33874 295.67866 319.11709 323.44212 326.31211 321.25021 316.79008 312.67510 306.20197 311.07175 311.75874 310.51328 318.33579 329.03122 344.11891 364.97602 380.56543 408.01661 429.07082 440.63157 483.04846 516.45010 534.62970 586.73744 610.60987 654.93023 689.37981 707.77515 763.44929 784.61954 790.55357 782.94624 754.95138 716.47824 651.50707 584.50145 534.54976 510.40795 479.46710 437.28799 439.22917 409.09439 375.53101 301.63851 267.63017 215.23368 188.11063 117.66224 86.91799 27.96419 15.08919 -47.05070 -94.24185 -138.50651 -1472.17503 -2543.38878 -3907.73437 -3967.60535 -3970.63115 -4043.75975 -4052.96723 -3641.82966 -2075.16875 -815.86179 -885.26637 -1335.47634 -1973.63599 -2510.22167 -2946.36100 -3175.04467 -3229.41833 -3242.43489 -3253.13836 -3256.32477 -3263.92125 -3271.99879 -3279.69785 -3286.68145 -3292.97516 -3297.88152 -3307.27720 -3312.78747 -3317.68532 -3323.15941 -3323.25941
-5005.02277 -5004.92277 -5019.69045 -5020.76642 -5027.09600 -5050.71463 -5086.91183 -5113.03893 -5140.54969 -5154.20684 -5074.37344 -4883.70660 -4677.33076 -4382.29857 -4192.29605 -4172.02459 -4034.98341 -3699.72628 -2894.87189 -2250.41869 -2077.47152 -1968.41035 -1877.53040 -1765.04153 -1066.55701 -557.72231 -451.11392 -374.65669 -282.41718 -236.84651 -191.97618 -137.66135 -91.70771 -35.27088 31.82973 86.45730 121.84886 153.70876 231.38171 288.48920 355.76973 317.16564 276.70562 271.55223 255.72189 225.34783 212.60711 204.25969 201.37238 198.94920 201.38833 198.10509 195.23210 201.90830 219.16473 234.27845 269.75104 289.35312 334.82411 351.21023 349.03460 344.74154 344.96978 345.12342 337.13193 326.63255 319.42535 317.65684 318.83295 316.03300 331.81036 340.45889 355.39472 368.91550 385.18478 404.50860 429.08460 456.20221 489.42778 513.32794 555.00577 578.05734 614.32600 641.79020 691.41351 720.02587 767.34880 776.86575 778.15759 758.59792 732.37523 698.53121 665.27401 594.74415 535.25532 498.91057 478.50458 432.65560 400.91857 384.91589 347.61794 266.03377 248.08827 215.38131 190.90330 123.58773 53.86670 -1.23867 -55.75518 -78.29479 -113.41270 -244.26810 -1164.35052 -2838.39764 -3921.43376 -3968.40643 -3961.97105 -3926.87979 -3743.17719 -2684.50407 -894.02755 -662.04342 -885.17325 -1191.95382 -2438.34138 -2762.06769 -3032.99663 -3197.95778 -3204.35517 -3226.86114 -3247.55109 -3252.25901 -3259.84966 -3270.90181 -3276.76725 -3285.27074 -3289.94366 -3293.19598 -3301.63094 -3306.01575 -3314.79133 -3319.26446 -3319.36446
-5181.61868 -5181.51868 -5161.49714 -5149.10111 -5149.79992 -5154.29559 -5156.32054 -5091.17001 -5072.86882 -5059.37856 -4939.89557 -4776.36873 -4752.84275 -4635.63288 -4664.21458 -4624.64323 -4358.70407 -4087.95932 -3233.92104 -2349.74644 -1855.87648 -1855.51930 -1745.96727 -1496.24148 -903.70635 -647.09316 -458.80675 -393.03180 -313.09973 -233.32759 -173.03939 -144.15848 -76.20901 -36.25221 -4.86446 52.92467 155.01598 228.61750 248.76962 269.88646 262.06484 279.14893 266.20831 233.79840 223.04846 223.14919 200.63869 190.19649 180.46498 181.09774 178.50682 183.60827 188.95893 203.87275 214.43601 241.29020 277.19901 308.67344 356.35285 407.06361 401.71079 374.84833 388.53994 376.90794 347.53249 340.27795 330.93818 332.14209 330.78903 337.49347 350.17043 351.69029 358.62084 372.25152 392.48191 412.11323 430.81083 449.49784 476.67445 518.69696 556.79688 586.08387 621.97130 639.75619 672.66866 715.44940 741.45693 754.09457 757.73335 746.88491 722.42917 702.68343 670.91893 633.75561 572.41784 549.46709 510.85443 471.54560 431.08152 374.22105 316.62182 287.56339 266.26381 222.64838 176.32701 119.25503 58.75766 13.77692 -55.26768 -134.21752 -262.47777 -335.21732 -1120.17868 -3175.77415 -3905.13286 -3915.21962 -3930.53188 -3873.51636 -3231.60321 -1755.98708 -789.86371 -579.87710 -1061.22572 -1647.35010 -2367.08499 -2834.30379 -3019.60098 -3191.33293 -3227.41751 -3236.95218 -3243.75738 -3251.98160 -3260.46593 -3267.48653 -3273.52213 -3273.60958 -3283.01122 -3291.75385 -3299.00338 -3304.53602 -3310.89610 -3316.26311 -3316.36311
-5325.18117 -5325.08117 -5189.56901 -5132.79643 -5102.29446 -5041.11232 -4982.04481 -4927.96532 -4880.46117 -4887.59535 -4882.01680 -4874.94374 -4850.25193 -4871.67545 -4906.12386 -4900.89587 -4728.56824 -4432.65944 -3833.30343 -2650.30725 -1441.86411 -1460.54185 -1460.63137 -1382.30188 -859.32740 -570.71258 -462.01431 -387.64201 -322.52916 -243.08701 -183.26054 -171.13431 -51.53003 -19.35565 46.03874 105.00088 190.16099 279.61997 254.09229 212.95867 193.88138 249.42100 220.08451 202.70161 188.82265 180.47825 168.85888 174.69322 163.03394 168.28503 167.26331 174.60247 178.87551 195.98280 213.79870 230.11397 271.39745 321.25268 349.12108 417.72027 437.05385 443.51598 434.31539 395.47513 375.38925 366.43514 352.08893 342.95984 348.38558 353.30289 357.64630 359.30520 367.76201 382.55868 396.00393 412.82281 435.89344 455.47757 484.35590 513.67815 543.63814 589.12549 617.09476 648.71174 670.55426 701.32538 737.46599 738.64625 740.65984 731.26731 712.50389 690.63522 663.50244 628.56799 594.08712 579.45550 538.98509 466.21548 418.26645 371.69032 345.36035 297.35133 225.56046 163.96477 144.74950 73.62629 28.48439 7.24254 -28.66365 -185.87988 -253.56650 -633.81047 -1738.73240 -3023.54849 -3994.35370 -3905.24160 -3872.01790 -3795.47730 -2910.46389 -1210.42567 -516.85845 -643.78729 -1104.05459 -1810.13045 -2416.17190 -2868.74990 -3026.88917 -3179.80068 -3229.65508 -3234.94155 -3242.63024 -3249.53614 -3256.87485 -3266.26002 -3267.91046 -3266.34262 -3279.69381 -3288.20016 -3294.69301 -3300.45209 -3307.74886 -3314.16911 -3314.26911
-5031.44682 -5031.34682 -5015.85851 -4941.66650 -4939.80555 -4868.21078 -4848.06492 -4854.02268 -4854.27692 -4896.55831 -4933.67924 -4944.83819 -4941.94301 -4955.44961 -4950.78943 -4937.34898 -4858.51379 -4594.07801 -4176.98216 -2850.03717 -1799.08551 -1300.90463 -1232.03613 -980.12482 -662.03742 -520.05289 -442.09927 -374.80545 -333.34374 -237.23164 -188.67656 -158.89228 -79.02790 -34.21302 37.33031 139.78389 242.10405 245.96201 149.09883 154.78837 139.56660 188.79434 182.59616 158.33020 145.92204 147.03112 146.34349 143.74479 144.07246 137.78526 157.49823 171.16405 173.88833 189.28516 209.63965 226.45636 252.55746 289.88022 336.84922 379.57849 439.56656 483.18287 442.37227 397.74025 391.12988 386.87969 375.30219 364.13572 360.80168 359.87482 361.06327 362.06843 368.02647 384.64888 395.93171 417.18969 434.44593 458.55901 488.81216 508.49261 540.27395 579.58672 624.95850 647.80705 677.85933 704.92060 717.39962 731.15274 729.35863 703.17703 677.46776 677.95054 640.75728 612.16909 552.60046 545.68446 527.98727 461.67395 416.01589 358.37769 321.34817 264.74861 211.44099 147.66198 123.13205 62.56264 40.08296 19.49181 -25.58398 -190.40354 -282.63644 -930.17743 -1351.54424 -2920.08233 -4086.67637 -4166.52540 -3936.73900 -3510.79689 -2326.94306 -479.78360 -332.63373 -612.66909 -1224.96516 -2039.15048 -2482.47579 -2860.96490 -3020.75133 -3147.93225 -3219.87077 -3235.26681 -3239.56461 -3247.12372 -3257.35278 -3258.96358 -3258.02255 -3265.23693 -3274.27135 -3283.97882 -3292.80776 -3300.53955 -3307.15221 -3312.91002 -3313.01002
-4839.91013 -4839.81013 -4879.30317 -4882.23336 -4874.93353 -4892.85268 -4880.53464 -4908.44037 -4941.03649 -4967.62634 -4966.66097 -4975.56136 -4972.44413 -4969.44144 -4965.60571 -4964.62947 -4944.75146 -4801.22152 -4500.37100 -3390.96955 -2055.29124 -1124.83174 -1036.58832 -847.66282 -620.73251 -509.33218 -431.89602 -384.00035 -340.22588 -288.29708 -215.11363 -180.85093 -84.70605 -33.09085 65.29577 132.65821 109.62035 148.34527 121.47446 99.81436 92.77309 137.88163 132.71501 124.87380 121.29310 120.89720 116.63923 125.55927 126.64916 131.22900 143.08671 161.33410 167.44893 173.74094 190.15213 216.98090 246.14377 259.14386 296.29270 356.23799 410.47948 469.94727 462.32310 427.34328 417.84083 405.91264 396.31438 386.44513 376.31289 368.72913 368.47826 362.70937 367.57934 381.40174 395.42426 413.53566 440.74545 451.51797 482.02426 500.72545 548.86375 581.89703 610.15068 643.96936 664.83273 695.14757 708.02170 703.14671 688.64372 671.05427 657.98638 636.63276 617.83203 582.53555 563.98336 528.42969 489.86170 430.27701 405.67729 350.79858 312.12848 263.17726 226.11566 170.29059 141.84999 97.44033 59.61433 -6.00928 -49.93618 -157.72916 -277.49940 -508.08694 -1584.89186 -2632.25264 -3913.14562 -4421.23214 -4233.11980 -3259.94917 -1644.34595 -184.97524 -151.85514 -463.62123 -901.21727 -1837.14452 -2227.83524 -2642.76975 -3040.76831 -3160.43615 -3218.78274 -3229.11747 -3230.97006 -3233.91309 -3244.49291 -3252.25933 -3256.36072 -3263.80051 -3271.81290 -3281.30067 -3293.25940 -3298.46726 -3305.74573 -3312.46074 -3312.56074
-4934.92008 -4934.82008 -4934.12870 -4930.91505 -4950.66725 -4965.60551 -4966.61906 -4984.84277 -4984.71383 -4985.18462 -4984.82993 -4986.67617 -4986.90702 -4981.48091 -4984.41907 -4981.94995 -4971.66890 -4913.65588 -4637.02505 -3798.53485 -2804.08039 -1488.83028 -1064.97607 -902.13565 -622.08040 -513.97240 -444.73915 -395.73269 -374.06540 -292.91556 -245.55773 -200.53075 -146.71926 -95.07397 30.68057 72.61698 28.02603 45.70374 62.91591 52.22102 75.73829 70.29280 82.18937 95.18077 85.15677 81.05864 88.92851 104.98070 109.44256 118.88611 129.51425 143.34704 149.47333 158.99196 180.76402 195.96692 234.49960 266.56035 308.22957 329.69753 439.88440 484.78361 495.59564 471.20286 464.92473 434.22224 416.00787 403.25637 384.04425 375.83856 372.50061 365.85982 363.00452 374.44413 385.35270 404.53169 443.12808 462.10874 493.64812 501.75815 549.02084 574.25271 602.56437 635.57099 656.36570 680.39790 693.99995 690.79075 675.75115 641.82291 629.42940 615.67620 602.79145 574.60403 543.84208 501.85680 451.85148 425.01022 386.94920 351.47050 289.12194 246.73956 218.07588 172.74889 111.62190 57.83227 9.23147 -44.38420 -100.59363 -150.44181 -279.79835 -1078.11477 -1944.33998 -3549.15579 -4323.31653 -4462.50252 -4245.05287 -2751.34759 -858.00089 -286.65910 -151.07323 -502.44791 -1018.58142 -1818.39417 -2277.30297 -2721.40711 -3052.84279 -3193.69585 -3203.78611 -3213.52060 -3223.69484 -3229.25147 -3239.24992 -3248.16638 -3254.49446 -3262.86022 -3273.11407 -3277.22581 -3292.26204 -3299.01836 -3304.86013 -3312.64657 -3312.74657
-4992.55833 -4992.45833 -4990.96913 -4989.89222 -4994.26952 -4999.48250 -4994.18622 -4991.36124 -4999.34819 -4999.03663 -4996.27956 -4996.20155 -4999.03878 -4997.38161 -4993.62328 -4991.50783 -4969.69421 -4919.40128 -4595.45525 -4229.59772 -2755.63465 -1511.18583 -1050.58176 -882.94409 -595.15671 -566.43445 -475.50495 -421.78550 -388.56925 -335.62244 -270.92913 -221.45818 -165.94079 -141.49762 -90.91430 -62.18117 -46.96761 -8.12536 10.08303 12.69808 30.34835 17.53016 21.59280 46.28742 43.67796 53.09863 68.96444 79.50969 92.24870 108.99501 111.28567 125.65065 128.97677 153.83260 167.47712 194.33640 228.79834 243.82356 288.61117 327.17176 390.49404 429.02412 484.86997 513.32316 484.04349 448.48832 430.67896 419.30878 392.39222 391.75461 381.80453 374.18377 367.91077 367.76688 375.03070 395.97524 442.43356 458.73583 491.11969 511.35909 542.06526 564.62731 598.49316 626.67743 655.59096 671.07340 678.32079 672.79658 647.30713 626.80493 589.67371 582.24435 559.41098 546.20753 521.30487 476.99895 438.30172 394.27552 354.09346 332.57651 274.70575 239.27050 201.20080 154.03361 129.28334 81.74493 23.94515 -30.64200 -85.29844 -185.68516 -310.01818 -1189.28104 -2311.55125 -3569.99310 -4325.39768 -4460.00403 -3831.93694 -2086.12857 -959.77170 -134.45971 -185.04772 -525.20600 -1080.91980 -1707.99423 -2334.34176 -2815.57512 -3065.88649 -3192.65386 -3202.03174 -3208.43620 -3220.06083 -3231.48904 -3238.01416 -3248.13798 -3255.76601 -3263.49677 -3272.69696 -3278.50573 -3288.57342 -3297.83278 -3304.57128 -3313.24192 -3313.34192
-5002.50483 -5002.40483 -5003.87882 -5007.53162 -5007.20629 -5007.84551 -5005.44154 -5005.07993 -5010.18837 -5009.97392 -5010.07232 -5008.26266 -5008.43332 -5007.59121 -5002.31612 -5000.07013 -4977.77738 -4800.10922 -4530.99637 -3854.62584 -2563.75081 -1336.44431 -1088.51984 -905.04314 -748.84395 -672.60815 -487.17363 -452.81613 -402.76943 -374.62277 -340.01246 -261.18599 -199.07268 -161.47762 -118.88438 -102.08631 -82.10895 -58.78294 -36.06983 -18.24285 -3.70196 -20.49134 2.41656 24.40656 28.45737 30.54896 51.13126 66.02807 72.46273 83.37949 101.86925 112.84972 124.57966 141.18108 162.68877 192.54180 217.98728 244.71819 283.11215 321.53781 376.75537 406.13346 461.56399 542.65251 505.11938 482.51478 451.03557 451.52385 421.21820 411.39989 390.96599 376.68550 371.22496 365.00119 373.13708 389.98319 425.98949 447.60536 473.51990 506.04485 537.01009 556.84089 595.39196 617.30514 632.19683 643.54943 649.40698 642.86399 639.12014 603.12094 566.83423 551.71364 528.22036 527.12220 488.54140 458.13571 412.74128 356.86239 337.81574 323.09030 267.22738 226.54558 175.46634 129.80555 93.98454 51.42112 5.87029 -44.46138 -70.35839 -174.80303 -297.51263 -793.84269 -2797.47165 -4300.01375 -4463.97699 -4458.98986 -3702.37036 -2519.88832 -579.52480 -126.18295 -144.98449 -378.25985 -1235.73530 -1800.01185 -2440.38021 -2781.18160 -3122.91951 -3196.60465 -3202.25023 -3211.86914 -3222.26546 -3231.46152 -3236.83649 -3251.98075 -3255.93830 -3261.24002 -3273.62146 -3279.68800 -3289.02022 -3299.18018 -3305.24012 -3314.04405 -3314.14405
-5016.93067 -5016.83067 -5018.41011 -5018.41254 -5021.62394 -5019.69491 -5018.70643 -5020.74946 -5016.47545 -5015.76977 -5017.78215 -5021.01586 -5017.80051 -5015.22639 -5010.80472 -5000.75237 -4973.06586 -4678.59535 -4281.41161 -3467.65031 -1955.40743 -1355.05215 -1075.96362 -996.61280 -897.83248 -690.18676 -547.53643 -512.31966 -428.28157 -411.41802 -337.86441 -294.87539 -266.19133 -190.67381 -144.80525 -114.88028 -108.28087 -83.24214 -68.53965 -42.16063 -37.78182 -34.74820 -35.56510 -10.88586 -1.59770 19.61573 32.17165 46.82026 49.10824 72.61765 82.31534 94.18679 119.46100 141.20503 166.94925 184.53624 201.81952 250.45705 258.92548 319.36643 348.42190 411.19212 463.35641 534.80788 536.73131 541.53009 529.27351 493.63461 460.39068 435.28170 403.32197 379.72688 373.02883 369.82367 384.96115 401.73934 416.44405 438.18925 462.16459 496.89568 524.50922 544.09010 575.15046 599.30513 620.26635 631.11629 632.91286 635.23085 615.93195 577.81970 545.91948 511.13598 473.79161 477.71171 451.11782 423.12059 392.20174 353.29138 332.74893 294.53492 273.40660 226.89728 153.03963 113.28244 66.14899 41.29883 -5.46395 -52.78130 -84.42099 -157.54184 -214.74152 -684.77684 -2087.11162 -4048.39467 -4345.33158 -4427.75287 -4042.27043 -2885.58998 -540.64818 -129.28489 -140.06501 -536.93449 -1213.49934 -1694.47927 -2577.37358 -2894.15987 -3157.25959 -3195.31513 -3206.86674 -3214.22555 -3225.03505 -3230.60030 -3240.28208 -3249.60413 -3255.35321 -3265.45128 -3271.27821 -3279.79855 -3290.80831 -3300.03115 -3305.94544 -3314.85091 -3314.95091
-5029.81767 -5029.71767 -5029.74501 -5030.53191 -5031.73088 -5032.73638 -5033.67424 -5029.95970 -5034.55419 -5031.89610 -5027.26672 -5027.45010 -5023.57413 -5023.16305 -5020.88540 -4998.67848 -4917.72996 -4658.97043 -3726.94519 -2837.76907 -1867.03592 -1257.56767 -1116.70527 -1045.89016 -991.11708 -838.01935 -701.70810 -552.06919 -469.75752 -450.21936 -383.36554 -367.03020 -320.90263 -267.63520 -175.04070 -152.14974 -124.86063 -106.08266 -88.21802 -81.00096 -73.64133 -54.24721 -41.25845 -36.36459 -31.48476 -5.73351 1.44643 13.00527 35.12362 50.48370 70.73399 83.02431 122.64391 127.86114 156.89848 177.71005 192.99122 240.73589 265.33273 300.40969 327.34859 387.40481 439.60668 471.05615 516.45747 510.56560 509.52522 518.40728 478.44499 453.13963 407.33976 377.52411 366.74411 370.53775 374.59189 391.33700 411.69747 432.95451 455.91032 481.09519 514.61504 543.69117 561.71751 585.65671 610.34703 616.56480 621.38152 618.76852 591.86371 557.13129 529.97153 485.95236 454.05901 451.72932 406.04169 368.90336 352.60128 310.21049 300.20659 259.35491 214.30387 190.33424 153.75879 102.06077 52.99568 12.36340 -20.85962 -50.18353 -105.41676 -180.36903 -290.09430 -812.44330 -1558.40324 -2854.79428 -4522.57588 -4697.05800 -4419.41980 -2846.52429 -1378.83882 -362.61888 -337.77387 -912.58272 -1384.42753 -2071.88445 -2778.68862 -3126.58609 -3165.55060 -3195.18614 -3210.12938 -3218.51438 -3225.70904 -3236.01558 -3242.67655 -3249.20428 -3257.88753 -3266.20194 -3271.93371 -3281.04623 -3290.49531 -3299.28423 -3306.29552 -3315.86237 -3315.96237
-5039.80936 -5039.70936 -5039.27843 -5041.01841 -5040.08052 -5040.29979 -5039.67997 -5038.97678 -5038.59001 -5037.21725 -5036.68602 -5033.88428 -5032.33479 -5030.46625 -5026.87051 -5004.47459 -4890.26289 -4461.13465 -3490.35705 -2698.53832 -1729.07461 -1294.41632 -1181.76251 -1072.84565 -1003.34316 -852.50636 -779.11435 -717.06337 -575.83483 -474.94626 -431.12411 -388.38492 -359.35844 -300.71046 -234.90504 -168.72130 -161.21919 -145.72711 -115.97348 -116.29176 -109.09356 -93.24042 -63.63376 -44.44845 -44.38545 -18.78862 -9.06230 7.40314 28.08570 34.36515 55.63936 67.85114 100.54972 128.76659 151.73227 166.46558 199.30140 224.83333 250.40904 291.70316 323.36392 353.36154 408.80205 415.50723 445.24009 453.91474 438.78203 427.03735 443.18880 412.00152 371.43940 355.08032 357.18595 362.15013 367.79594 376.64366 400.38421 422.72101 447.03351 466.60777 485.27841 538.31928 553.96727 573.10037 588.83996 594.41349 583.49408 570.63269 553.81890 544.59024 514.85881 484.79877 450.81421 424.30051 401.70581 364.81249 313.35728 254.84723 272.55851 233.10356 187.00023 132.86149 132.00269 89.90024 23.52827 -3.92035 -43.45049 -85.31445 -150.70792 -184.40647 -493.53167 -917.87991 -1674.62092 -3586.14080 -4806.30375 -4901.90717 -4823.68427 -4059.14214 -1908.94369 -1227.00082 -1294.55830 -1419.04172 -2143.09197 -2234.99267 -2797.86374 -3145.66742 -3167.80284 -3185.25527 -3215.03507 -3225.03507 -3232.30976 -3236.09154 -3248.12293 -3253.89167 -3259.86449 -3265.64056 -3273.36012 -3284.01237 -3292.80736 -3300.33104 -3307.15242 -3316.84999 -3316.94999
-5048.30325 -5048.20325 -5048.20135 -5047.63541 -5048.67603 -5047.48601 -5049.18876 -5047.69530 -5046.90672 -5046.32748 -5042.89085 -5043.52624 -5039.62377 -5038.03378 -5036.36115 -5010.87860 -4862.20226 -4547.43890 -3458.22365 -2913.26551 -1835.27989 -1417.08542 -1193.78217 -1091.14630 -1008.46685 -963.95193 -882.34335 -814.41239 -728.72740 -602.24514 -518.83424 -460.78752 -354.37757 -312.85706 -262.91567 -232.82312 -194.92582 -182.03624 -155.85732 -134.91347 -120.11875 -120.48389 -107.15312 -75.00218 -58.33446 -34.13620 -20.34633 -4.86585 10.05962 36.49051 52.55441 69.05508 91.04713 118.11551 141.25984 162.62392 187.97268 220.34780 234.17973 267.94642 313.78896 330.82691 344.85268 385.55706 388.18437 385.71783 398.69723 407.35349 394.57897 372.63263 350.08150 344.48571 341.64589 343.11293 355.70663 370.27442 383.60869 408.93003 442.59370 469.08383 482.40919 511.98512 545.05026 558.09524 574.16126 577.96913 562.37474 539.94590 508.78098 497.73510 493.17517 452.75878 418.57379 388.59962 373.51102 367.96496 304.31487 251.88923 242.76157 207.07634 186.89805 124.96221 113.55796 79.24101 16.66438 -13.97409 -54.67626 -120.30408 -162.42259 -322.80210 -655.02571 -1445.99136 -2552.06917 -4401.25470 -4889.04882 -4927.31503 -4879.21250 -4466.04769 -3921.82056 -2595.04779 -2619.23734 -2644.73502 -2448.12383 -2879.73355 -3005.67203 -3165.35288 -3180.90634 -3190.27622 -3215.18653 -3225.33225 -3237.71351 -3245.15435 -3251.41670 -3255.31157 -3263.04032 -3268.14502 -3275.92363 -3286.14534 -3293.26213 -3299.23654 -3308.07073 -3317.83846 -3317.93846
-5056.29378 -5056.19378 -5056.74305 -5055.21301 -5057.97673 -5056.30605 -5055.63099 -5054.87586 -5052.32479 -5052.27663 -5051.90143 -5050.57074 -5047.96393 -5046.17374 -5043.69519 -5029.77581 -4938.29431 -4820.67167 -4294.64147 -3365.21580 -2160.81967 -1561.81405 -1355.28610 -1152.58385 -1098.46980 -1025.02631 -961.23822 -929.12331 -830.04192 -704.80531 -592.04390 -488.92199 -400.96248 -338.63893 -321.50196 -280.07230 -237.13851 -220.45829 -200.16475 -166.00297 -150.28036 -134.19952 -110.31317 -91.70671 -72.01067 -54.68769 -33.35465 -17.84303 0.11154 19.28504 43.91341 58.20912 83.67759 111.02894 140.17088 159.74289 193.65406 221.18747 236.75815 276.65725 304.06673 311.75994 322.99846 348.52062 346.43447 342.88385 352.39454 352.31512 362.01082 340.00798 324.80922 324.58008 325.91771 331.22854 346.42585 357.43653 371.98087 399.31461 428.42126 449.70603 479.29748 506.77544 523.99679 537.10087 553.61172 558.67699 556.88659 515.54629 488.74994 441.70897 448.34585 436.16320 381.96519 363.19340 343.83464 330.17345 307.45192 260.95524 211.73648 166.54182 139.83274 129.20751 91.62175 67.46232 10.31924 -32.71272 -99.00171 -173.64536 -256.42136 -460.47665 -1020.33157 -1506.25467 -3354.43124 -4403.86920 -4922.04783 -4923.30098 -4900.29500 -4879.97613 -4651.08558 -4046.05518 -3265.96937 -3168.01587 -2942.57606 -3094.80204 -3161.41144 -3175.66258 -3192.49778 -3208.29387 -3217.92101 -3227.07800 -3237.98517 -3248.85962 -3251.38376 -3258.85967 -3265.94909 -3268.76255 -3275.72094 -3284.99479 -3293.86066 -3300.40974 -3309.55942 -3318.65349 -3318.75349
-5064.14174 -5064.04174 -5064.71037 -5064.18410 -5063.75805 -5062.59298 -5062.13515 -5061.21375 -5064.51383 -5058.63173 -5057.30812 -5056.67330 -5055.40829 -5054.05171 -5049.87090 -5047.61866 -5006.93746 -4911.72227 -4609.36190 -4222.00040 -3222.68704 -2660.14930 -2057.72137 -1268.72707 -1174.18784 -1062.97374 -966.38287 -935.11497 -923.62851 -856.27617 -756.33630 -587.56357 -436.43870 -384.76264 -366.48643 -359.01164 -300.18976 -272.68961 -231.11408 -193.79812 -176.36416 -161.40480 -137.61131 -113.65712 -86.73043 -72.18140 -50.75695 -19.40115 -6.96185 23.49423 35.23159 49.72054 86.37242 100.54710 133.55375 164.02271 182.97011 222.74860 255.28862 278.70050 293.47326 299.36945 302.75596 310.56062 317.20634 320.96630 314.80382 313.09763 318.01261 321.30822 309.74861 309.77247 313.06220 318.15223 328.24100 341.45415 362.39620 382.62734 417.00930 435.61024 457.96430 483.99965 510.82596 528.79108 536.18349 537.13334 536.70191 526.42295 476.45891 403.02931 412.55038 425.76903 367.89694 343.86061 295.42302 283.74421 250.45163 236.00803 195.36845 147.25825 125.77466 109.48346 63.45310 37.71083 -15.17133 -49.20880 -100.45988 -184.18458 -428.51640 -623.94218 -1126.75505 -1626.98118 -3594.19642 -4577.54806 -4916.31113 -4899.80173 -4907.80897 -4900.15868 -4838.59023 -4318.45783 -3599.86429 -3203.85612 -3058.37445 -3150.84174 -3172.89057 -3187.96867 -3196.03261 -3214.78892 -3224.86176 -3230.37444 -3239.06102 -3246.95765 -3249.91280 -3257.48525 -3265.51503 -3269.05136 -3275.38862 -3285.30912 -3294.67844 -3300.40509 -3309.98448 -3319.63847 -3319.73847
-5071.84959 -5071.74959 -5071.93252 -5072.22000 -5072.67796 -5071.24801 -5070.89464 -5069.21876 -5069.03505 -5067.34135 -5065.14952 -5065.49647 -5059.88506 -5059.57327 -5058.33853 -5054.21244 -5037.83867 -5010.21995 -4956.88489 -4740.02602 -4071.53347 -3185.45683 -2364.75255 -1689.85731 -1333.38840 -1073.03405 -1029.65697 -1006.84418 -952.40110 -929.22973 -864.89888 -694.71936 -657.68678 -542.86505 -439.54818 -394.21668 -370.37895 -303.58578 -257.71836 -237.93599 -216.63758 -185.15582 -164.34255 -134.64594 -104.06430 -86.44118 -71.74827 -23.05060 -13.48208 10.27529 35.76528 47.35410 82.19274 94.75062 127.79997 171.03183 200.13039 253.93875 299.17625 303.29080 286.80906 287.67372 289.76949 292.64899 290.09411 292.02812 293.79748 302.43051 293.32514 290.49252 293.21828 299.31980 300.61277 310.16594 317.59378 334.59877 357.03723 377.79447 396.07130 423.53985 451.98480 474.10607 485.20468 510.95264 520.66872 522.50607 518.64642 491.74859 454.54939 423.23469 336.41046 356.31951 319.03296 317.80399 280.01136 250.60011 241.18752 179.43136 165.60830 138.92521 113.15702 90.35473 62.41603 5.83387 -45.31114 -82.36535 -150.83716 -226.60092 -518.94886 -806.96679 -1292.58216 -2254.97293 -4039.13818 -4387.24292 -4871.09929 -4905.08069 -4888.51153 -4889.13572 -4877.39555 -4737.80155 -3940.31336 -3159.30543 -3168.84710 -3182.61071 -3170.26568 -3190.68548 -3207.27744 -3219.72849 -3229.22615 -3234.19178 -3240.56763 -3249.48920 -3252.83483 -3257.92673 -3266.98064 -3271.39396 -3278.58373 -3285.48115 -3293.07155 -3300.73823 -3308.31362 -3320.65608 -3320.75608
