-4098.68667 -4108.09151 -4088.92966 -4088.64208 -4096.74404 -4103.13567 -4097.04940 -4102.26151 -4105.26739 -4102.63920 -4103.81133 -4095.88093 -4098.18772 -4099.15211 -4103.50550 -4092.62299 -4082.29810 -4032.69896 -3666.95203 -3257.61849 -1944.90509 -1080.40754 -505.76267 -312.95956 -232.01671 -221.81313 -54.61741 212.44327 436.19418 634.87838 743.00116 878.64596 1023.58561 1080.26276 1117.13544 1120.89975 1124.37812 1143.88693 1153.06821 1138.99089 1148.69912 1140.68266 1120.13055 1073.94666 986.82284 859.81417 713.09300 528.76784 394.38324 313.39909 279.95006 283.33426 311.21756 394.91763 490.60900 675.80931 890.36832 1060.72131 1158.89530 1166.82074 1171.25450 1181.05399 1177.92623 1174.98565 1171.03348 1176.75224 1174.48478 1180.26090 1168.12080 1155.93857 1113.83243 1095.69483 945.31290 605.36233 400.95335 168.21539 66.39901 64.39350 50.46409 44.72663 45.29166 41.35447 34.42742 30.82804 15.02286 22.56470 23.31670 19.80716 18.35188 26.47430 31.96454 32.97669 55.62640 85.25252 113.15968 129.11413 124.33621 129.83628 149.43226 179.78109 188.89218 177.63174 129.81299 109.42738 100.06326 99.51359 101.21486 105.32115 104.16775 94.36709 85.13184 26.04878 -32.05705 -110.50808 -346.08952 -843.16750 -2011.58295 -3100.49412 -3597.86350 -3966.31898 -4003.46548 -4014.18443 -4007.44044 -4004.90234 -4009.18246 -4013.16635 -4013.64233 -4008.56462 -4015.86824 -4018.99627 -4026.36933 -4021.05217 -4025.02901 -4023.67511 -4023.84721 -4017.24903 -4024.25885 -4026.33657 -4030.62844 -4028.79496 -4031.17939 -4030.73387 -4033.91368
-4103.13009 -4108.19300 -4104.49819 -4102.78456 -4103.84915 -4099.61669 -4103.61097 -4103.26840 -4104.48877 -4099.45265 -4100.55974 -4090.08256 -4101.55255 -4099.96044 -4095.58495 -4094.00535 -4081.71254 -3900.83912 -3596.81354 -2889.35082 -1808.23759 -880.21477 -498.18395 -307.95352 -278.52515 -261.91397 -125.54816 29.46094 246.12990 470.17080 629.42219 841.48509 940.08448 1012.24031 1069.64809 1081.16769 1091.76716 1088.16831 1091.36546 1102.99383 1081.88924 1060.49152 1061.78495 952.51662 896.48953 804.91639 672.24925 494.83530 397.62928 308.08260 268.28176 285.79217 277.89013 300.71426 347.17567 568.16540 785.77204 1019.49209 1131.83182 1162.64061 1177.88604 1171.40865 1173.59009 1180.31215 1182.14918 1177.99973 1180.06781 1183.66245 1174.50055 1173.44588 1166.64086 1126.44648 1087.07377 829.55649 476.53651 258.66070 169.32531 108.61360 65.51717 68.74193 64.30076 63.50844 55.58974 32.76495 27.80705 25.13023 26.38223 14.75845 26.76379 25.15791 31.43363 40.89988 62.73276 82.43923 115.64220 125.84776 131.68848 146.70384 200.05000 254.61221 277.76560 223.91913 140.23857 109.05711 104.43021 99.74413 106.02633 94.46172 93.24182 94.72445 95.67811 65.49532 -14.40097 -108.32842 -418.93462 -841.89794 -2214.62683 -2898.46880 -3724.26350 -3942.92706 -4004.88857 -4016.79339 -4012.89428 -4006.18822 -4012.20938 -4011.12817 -4011.12974 -4017.33840 -4020.14079 -4018.87931 -4019.01054 -4026.70855 -4020.12242 -4026.42767 -4028.10833 -4018.91303 -4024.82131 -4030.19333 -4023.83059 -4031.69979 -4031.04218 -4032.11712 -4030.03236
-4104.67510 -4109.12838 -4102.37987 -4107.52120 -4113.69845 -4106.50523 -4099.03886 -4104.27250 -4095.72385 -4098.16263 -4100.68549 -4099.21210 -4097.68410 -4090.11853 -4096.49478 -4096.47222 -4067.07107 -3758.07199 -3334.86949 -2471.94180 -1387.10727 -803.96737 -421.68778 -311.11057 -282.97390 -261.08172 -200.04575 -154.81276 44.60333 210.77810 558.93932 725.51845 843.66450 920.34788 945.87954 992.37102 973.77476 977.57141 983.73198 990.05736 979.90321 962.00890 928.55156 816.75552 769.72045 705.93352 601.60926 455.21726 374.22547 296.47430 282.13059 277.10191 277.49438 283.69071 358.38892 508.76590 704.21424 989.78712 1056.22915 1139.69903 1166.15709 1173.12606 1186.32530 1174.55723 1177.18506 1175.01525 1179.27322 1176.84370 1178.37991 1160.14082 1150.92092 1102.28604 1047.25498 853.96407 542.23887 417.00216 297.97251 238.51687 182.02167 173.80459 126.99823 189.57074 135.36362 84.87622 44.76608 26.45934 23.87138 26.63280 18.88202 20.04591 28.52000 47.25647 62.97528 96.91129 110.84728 123.21369 137.74821 166.39630 238.84796 326.27527 338.63491 278.01193 145.27124 112.31217 96.11475 103.19538 101.56556 96.62307 106.15377 97.29860 91.04255 87.23891 11.19285 -75.06114 -219.86551 -856.47163 -1857.07638 -2698.28886 -3716.28797 -3941.53335 -3996.74819 -4010.66550 -4011.71296 -4009.79188 -4013.79727 -4010.48379 -4011.44624 -4011.32291 -4013.04046 -4016.00669 -4029.19506 -4022.76365 -4020.09885 -4021.80406 -4029.25288 -4028.03335 -4026.95581 -4033.10374 -4033.01162 -4026.35793 -4037.42824 -4031.79560 -4039.60615
-4103.60997 -4108.18732 -4104.08624 -4106.41020 -4109.06263 -4105.13465 -4101.40727 -4097.82250 -4094.34873 -4101.82439 -4096.01205 -4101.81760 -4106.04524 -4095.09918 -4100.30506 -4081.11197 -3997.00592 -3736.12260 -2766.37655 -1836.48321 -1125.46610 -465.60739 -396.29967 -295.87414 -297.89716 -284.71846 -265.08168 -207.77446 -52.69628 49.23161 356.23117 539.17150 735.13693 788.47099 826.17497 843.62234 881.05101 883.32497 897.92594 866.02860 847.96842 842.61926 792.47123 728.33995 679.55177 535.69492 467.17681 398.76891 325.48427 299.79297 282.32081 292.52204 302.00081 309.18516 378.75071 497.78382 650.37187 882.06741 1031.06484 1111.79073 1128.22470 1158.88596 1168.69024 1174.14774 1176.03604 1175.30532 1168.43816 1168.78164 1154.98557 1124.24003 1068.92210 983.66586 905.81777 740.64411 677.39302 537.93007 491.43620 397.77203 367.46741 311.22264 367.56569 371.10963 247.62725 171.00224 76.38642 43.07568 27.20145 30.90355 24.41697 30.52659 30.96062 47.26599 81.08663 111.55392 126.98584 140.18607 131.63782 172.41020 290.01945 356.84348 361.67275 233.42335 158.60238 114.23248 96.66296 100.17013 94.53093 90.29713 98.51994 94.96490 90.42094 79.26751 31.45741 -40.88631 -220.45169 -713.70839 -1459.58243 -2690.52840 -3349.63623 -3834.67018 -3957.76357 -4001.66268 -4010.48198 -4014.18355 -4008.02320 -4015.48105 -4020.45929 -4018.89640 -4027.13177 -4016.90667 -4029.83732 -4026.69839 -4021.84649 -4024.92318 -4030.83614 -4029.22626 -4023.73007 -4030.89056 -4027.98567 -4032.36422 -4025.05659 -4036.66955 -4041.44102
-4107.34249 -4105.02577 -4110.83357 -4105.64986 -4103.20397 -4103.59014 -4103.13204 -4106.50042 -4100.97535 -4106.05857 -4104.22895 -4101.62677 -4094.64024 -4099.17488 -4100.72592 -4077.20209 -3964.96607 -3531.50776 -2538.80313 -1712.37159 -828.43447 -419.92948 -342.25376 -290.72244 -294.26586 -284.96924 -281.23691 -259.40867 -211.35901 -29.94063 180.31952 481.16210 618.31390 725.40711 748.27871 758.65869 743.78689 710.04012 723.83291 702.08988 673.96774 658.82001 668.15339 625.76610 483.34131 421.86799 372.42037 323.11090 303.31082 293.45279 309.30429 323.72931 324.65075 448.11257 473.10860 581.57189 740.11090 856.40730 946.82391 1031.66381 1089.56600 1113.22358 1143.55130 1152.80614 1162.69021 1154.98649 1132.58289 1119.40726 1122.05780 1064.70245 915.40132 821.24955 791.39262 720.65758 669.35090 640.38368 583.67338 545.12436 562.77376 586.54187 666.65156 559.01881 441.65743 262.04760 89.47863 58.32181 46.19724 30.98764 28.15578 34.62667 34.62005 58.56359 102.90003 144.48904 166.37010 164.39509 158.63512 200.03559 310.17550 348.58613 279.07091 155.72314 139.55472 102.23290 89.70352 92.18975 98.56329 94.19226 97.68637 100.87981 103.42117 89.14098 55.15639 -31.48160 -164.67821 -583.51122 -1100.56189 -1891.06713 -3153.51710 -3492.85765 -3797.95848 -3997.79247 -4004.20622 -4019.93157 -4018.43872 -4017.19764 -4021.85923 -4018.96208 -4021.38690 -4025.09318 -4027.18126 -4034.43994 -4031.12565 -4026.45695 -4029.20322 -4024.95450 -4023.49909 -4027.30174 -4035.54462 -4030.16128 -4029.63838 -4043.18887 -4045.75378
-4103.48690 -4102.77240 -4110.93289 -4098.26426 -4104.96754 -4106.34096 -4108.43550 -4098.40442 -4101.24126 -4096.97083 -4097.82668 -4097.82889 -4097.39676 -4106.53999 -4092.71588 -4072.47190 -3933.63339 -3608.22652 -2498.14885 -1952.33322 -1048.05941 -681.06659 -383.68005 -312.02410 -289.80211 -282.65564 -287.77094 -277.18082 -246.25004 -148.22073 -44.58416 213.24337 548.34523 662.60887 685.54644 614.39934 560.11471 537.78344 530.43189 552.18258 558.09353 437.15597 388.40356 379.32741 382.08908 313.85633 302.51910 309.59381 329.65592 361.66005 404.52473 444.02566 483.95719 531.71926 611.05525 759.64533 848.04774 923.62604 925.41298 941.40159 976.37083 1000.06205 1044.08546 1100.11745 1095.31106 1077.36972 1061.46969 1079.26791 1018.09546 941.07572 810.63346 771.45552 707.46292 686.32773 681.08497 668.45370 660.25173 653.07393 653.88664 704.89395 735.82523 694.37982 441.81581 234.02071 106.58003 57.68531 49.85475 47.10812 37.76708 43.80891 48.46253 97.42370 182.90205 249.81139 250.93888 232.48610 216.27931 205.05892 303.36234 299.21609 236.16679 136.03232 104.89472 102.07589 96.90370 101.25952 87.08783 101.54580 99.46282 97.09260 96.33764 91.34931 52.50047 -55.26124 -126.55548 -282.11381 -727.78338 -1501.81519 -2141.88019 -3085.77529 -3518.57445 -3816.20845 -4006.40899 -4021.27984 -4025.53430 -4016.88256 -4023.77706 -4020.33418 -4023.83102 -4024.09568 -4027.52169 -4029.69229 -4037.18326 -4030.43615 -4031.25801 -4026.75927 -4034.20501 -4025.48826 -4031.83385 -4027.71142 -4034.32735 -4042.73491 -4032.30357
-4104.58825 -4098.67903 -4106.62177 -4098.55890 -4102.91700 -4098.17018 -4099.47660 -4104.28001 -4109.50458 -4102.27586 -4098.48337 -4102.87650 -4092.54489 -4095.12527 -4099.73409 -4081.83221 -3996.34732 -3879.12083 -3351.49316 -2417.54789 -1538.26099 -1015.46556 -545.04862 -344.47622 -311.43162 -287.31107 -282.04214 -288.01544 -268.00304 -239.16938 -112.20067 68.38977 329.60376 600.33048 569.04194 480.29164 326.63081 233.01779 279.01125 265.58995 258.38425 289.80170 254.02523 223.94597 231.10146 241.61627 286.55144 348.25105 412.72770 464.60685 502.78711 561.27844 598.41577 673.01046 795.49244 933.44457 963.87283 1024.53428 980.37941 940.51220 904.91459 872.76495 906.87517 953.97499 943.30226 901.11860 894.52637 847.93399 848.98367 784.69185 733.73687 694.78654 679.96278 672.66844 678.22944 658.81300 628.94278 618.35187 614.26605 677.71056 751.55274 620.74534 429.37637 194.74354 96.59232 54.52251 46.96262 47.20657 46.88393 47.65345 72.66864 140.57314 258.73302 336.11039 370.90029 315.63701 236.09908 220.92279 208.74023 209.34996 157.88728 116.79536 96.19646 92.23795 93.97629 84.90659 94.06570 98.42099 90.02447 94.31209 92.81863 86.30584 60.30132 7.91980 -128.52046 -249.15038 -509.59065 -776.87910 -1391.51756 -1998.38600 -3169.94932 -3667.17417 -3970.75507 -4011.84937 -4015.41264 -4015.55656 -4021.23591 -4017.08935 -4019.79741 -4028.26655 -4030.53159 -4031.48263 -4031.77577 -4035.40977 -4033.25094 -4037.01099 -4028.44396 -4029.46473 -4029.35624 -4033.67693 -4037.58861 -4035.42821 -4044.74843
-4105.57584 -4102.77177 -4106.08544 -4097.01082 -4103.70775 -4104.45394 -4101.82577 -4105.13515 -4099.47667 -4104.22639 -4098.90926 -4096.21463 -4100.32541 -4092.78616 -4092.77688 -4092.23125 -4058.75404 -3964.54737 -3659.26641 -3268.48094 -2323.81391 -1708.95617 -1144.73479 -424.22202 -338.46780 -286.24670 -289.02692 -291.55295 -286.04487 -265.77074 -186.69052 -52.83366 195.01865 441.94265 470.97898 219.84441 123.96737 44.53130 41.87484 62.80497 114.50118 83.59738 77.44807 77.61340 122.01942 183.73298 355.86675 427.89059 507.31173 571.25226 612.69019 629.31098 681.27189 720.16051 893.59307 1020.77076 1085.38787 1091.68075 1051.16261 957.64495 893.79425 831.73491 799.78612 801.13382 823.89964 793.55237 758.70401 734.04365 726.96997 719.27825 690.95288 663.52429 656.81606 655.28110 623.02086 591.35825 567.90242 551.55291 521.93023 541.15817 557.25879 400.42504 310.09622 136.41471 68.47352 54.39500 47.46210 50.14421 47.70284 67.29541 109.83122 163.50804 311.45414 434.64317 500.68807 440.75302 239.41277 179.14650 159.88280 148.97784 117.76078 101.29225 100.04999 93.76644 94.61684 97.92440 98.94271 91.86846 95.00136 93.39815 93.79792 95.67010 80.02976 27.58258 -76.28436 -170.37785 -221.61819 -419.10820 -930.15657 -1850.88017 -2855.50187 -3445.61331 -3916.67075 -4014.42477 -4026.67664 -4025.36375 -4017.27930 -4029.67933 -4033.47393 -4020.32014 -4034.02055 -4025.79524 -4028.63981 -4022.48938 -4028.29944 -4021.77706 -4030.95793 -4026.57793 -4028.68067 -4035.16416 -4036.59782 -4039.11250 -4037.07401
-4103.17381 -4113.35881 -4100.64324 -4101.42126 -4100.82144 -4103.08324 -4093.10024 -4098.24327 -4106.25630 -4100.00274 -4101.17554 -4102.50756 -4093.95319 -4095.78155 -4093.96777 -4098.02322 -4076.81872 -4051.68757 -3994.28723 -3779.64260 -3107.17559 -2225.59150 -1370.85824 -761.44343 -502.45857 -298.47734 -290.03375 -284.67103 -283.63882 -275.99354 -224.82145 -109.51087 -11.53764 205.05258 256.30203 87.58638 -57.45117 -153.41346 -139.20975 -114.14564 -78.64726 -28.21751 6.48737 27.82445 91.21187 187.45258 376.23609 518.91615 605.35109 638.10818 645.76292 682.23650 754.40385 855.97781 1023.17993 1117.16386 1144.84396 1154.79309 1132.24945 1075.69583 969.23272 864.85993 774.77914 737.83928 712.20303 696.19292 698.19176 703.90289 670.75821 662.20753 654.74676 652.38590 625.06932 600.07534 569.74910 519.02511 431.20346 412.13704 378.58879 402.93551 410.96933 247.04575 190.34568 94.50802 48.50318 44.95379 48.34822 50.85718 58.10332 75.56896 137.71199 284.57173 449.31421 513.22397 529.61849 415.12849 270.46091 165.80338 129.03811 106.83112 101.81858 95.22223 93.32173 95.90421 95.65658 80.95849 89.56856 88.06346 94.92343 97.91537 96.07144 93.19068 92.13076 45.26927 -39.84730 -142.68185 -205.45561 -371.61141 -631.34720 -1247.01190 -2536.26750 -3522.09976 -3887.82777 -4006.44544 -4024.08107 -4024.01145 -4030.93162 -4032.33062 -4032.26108 -4027.37426 -4028.06134 -4025.19092 -4035.06784 -4027.68888 -4024.47690 -4025.64706 -4018.18636 -4022.79927 -4027.41849 -4029.32162 -4038.66036 -4045.68158 -4041.59217
-4100.39490 -4105.53995 -4100.26727 -4101.18743 -4114.66078 -4100.54478 -4103.81387 -4095.39198 -4106.04344 -4097.74962 -4097.82224 -4095.97046 -4096.56344 -4096.18233 -4092.90152 -4092.96291 -4089.49653 -4076.48251 -4031.63041 -3812.04408 -3609.08117 -2822.62256 -1812.39721 -1059.15421 -539.15133 -307.24814 -290.73540 -281.84047 -281.20837 -275.64071 -245.23403 -166.90161 -89.54755 30.59824 45.32858 -44.78416 -159.49537 -227.56017 -227.12287 -187.90684 -155.71640 -109.12611 -67.06733 1.43007 110.25891 240.89965 448.82227 571.27800 641.54287 663.88757 674.79794 700.82610 816.23576 944.58977 1045.76188 1138.28949 1160.86817 1161.26542 1149.33067 1130.80322 1033.66958 892.37176 788.63949 710.32533 674.90754 672.09886 662.33806 648.94984 633.62835 615.73285 566.21325 548.62530 509.28501 470.26592 433.13660 395.09459 360.86909 336.70369 292.25640 262.93822 200.00320 133.02142 96.76860 58.76824 40.14254 37.77453 48.32784 49.29736 63.04913 106.80687 212.03238 356.16057 505.61644 593.02956 529.74417 452.62262 255.54341 171.18941 101.87889 100.73632 94.85669 88.70667 87.30952 89.66622 86.25940 87.25334 88.89191 89.66876 88.12602 91.00417 96.24093 98.49371 80.03532 53.86528 -12.75186 -104.09385 -191.19374 -279.64364 -633.48788 -1415.03211 -2845.10161 -3398.19990 -3872.30507 -4013.85661 -4026.70354 -4031.82275 -4025.18987 -4025.97825 -4029.35341 -4026.63756 -4030.12434 -4030.65041 -4025.43213 -4017.97897 -4027.21975 -4025.54072 -4029.18918 -4025.01834 -4026.94853 -4030.31868 -4030.06560 -4034.58377 -4045.55463
-4102.55531 -4105.24149 -4102.24343 -4104.26569 -4102.21402 -4097.23570 -4103.49039 -4095.35003 -4099.67380 -4100.24815 -4101.13204 -4092.72985 -4094.40041 -4089.68831 -4091.42153 -4090.63577 -4089.22757 -4087.86193 -4077.73998 -3996.45505 -3875.99107 -3099.07180 -2053.55109 -1261.36042 -571.46506 -343.43111 -296.38541 -278.86138 -285.88365 -282.31208 -283.77045 -256.01473 -200.45899 -156.92546 -130.92430 -186.04913 -216.65784 -257.26573 -259.34202 -252.27165 -218.68466 -162.81040 -89.44468 -23.48880 163.11738 314.88137 535.18001 610.74633 651.33080 682.84944 728.80062 764.56433 920.51975 1025.82848 1108.25761 1160.46257 1165.92054 1165.73376 1164.94683 1147.39608 1091.49921 914.19004 808.64971 712.04377 670.61723 640.19619 603.15844 591.58523 586.67324 489.14994 472.07545 422.78921 421.73358 354.02108 357.08208 315.43178 303.36125 290.30883 223.07298 194.49122 83.43128 80.09840 57.40871 41.65381 43.07309 39.62197 40.16385 55.63879 62.66957 138.99270 228.28467 437.10786 548.46217 606.82698 553.60594 393.40482 285.72542 139.41205 108.23248 104.03316 88.01296 95.00266 87.85879 89.41989 90.48768 85.04724 83.89113 88.85183 90.47210 88.87083 87.52706 87.81048 89.69805 70.44849 17.50289 -82.75654 -160.13301 -319.94669 -699.18496 -1358.33438 -2707.32964 -3556.11933 -3921.73461 -4007.63607 -4029.73623 -4030.25539 -4029.12184 -4030.06965 -4028.38815 -4029.81380 -4026.66365 -4021.24668 -4025.61770 -4021.95297 -4022.11320 -4019.58603 -4025.33891 -4026.59787 -4030.71149 -4022.55022 -4033.51321 -4043.81303 -4043.81256
-4105.17079 -4109.51707 -4099.20940 -4106.77725 -4108.74687 -4100.41254 -4093.73511 -4107.06132 -4100.73639 -4101.20367 -4096.49942 -4094.09218 -4093.82026 -4094.68223 -4090.25645 -4095.30357 -4097.40536 -4097.25119 -4092.49278 -4058.31232 -3743.72421 -3233.62279 -2093.64226 -1224.51128 -565.01640 -339.98251 -300.79554 -296.62046 -303.65344 -350.62678 -334.09437 -336.77734 -304.27267 -258.64707 -233.72809 -247.91450 -259.18875 -276.44121 -275.24897 -264.38274 -238.76110 -202.57842 -115.19197 -19.47900 187.83141 322.21184 541.18747 644.22778 677.13860 709.02641 773.45487 841.14073 995.56714 1064.98000 1142.65731 1157.92294 1166.19445 1173.11386 1165.14693 1160.13487 1084.27671 977.48940 805.63533 692.25665 651.14812 603.16283 558.66931 491.29083 401.79647 378.03074 375.23572 355.20275 318.47678 310.21129 297.69586 286.15158 277.05414 272.77916 229.41303 175.99576 91.95383 57.12142 49.25291 39.30194 44.85902 39.97084 48.94369 52.22020 76.26125 142.28145 237.09537 456.32385 594.68268 640.15061 585.75775 445.14814 314.13854 156.97484 120.35406 97.67903 92.35543 92.95230 93.91036 83.29238 86.05227 83.58149 79.04888 85.24749 90.75470 88.54999 85.13893 95.68478 90.43083 69.99700 39.85941 -57.81249 -159.85362 -409.91698 -1018.32404 -1852.55427 -2943.75773 -3641.68057 -3982.77167 -4019.41343 -4034.08555 -4032.04928 -4025.38858 -4036.20565 -4029.86689 -4026.71875 -4029.72026 -4026.19984 -4021.07409 -4024.69051 -4013.56680 -4021.96178 -4017.88735 -4026.89386 -4022.77761 -4026.43932 -4020.72079 -4030.86291 -4041.22180
-4105.57802 -4103.13019 -4102.50635 -4109.54649 -4103.34015 -4106.01979 -4096.23584 -4105.19224 -4097.22619 -4100.23072 -4093.00713 -4092.33624 -4100.61645 -4096.70615 -4095.56689 -4085.97425 -4093.19141 -4090.79933 -4083.02508 -4044.35750 -3539.56959 -3146.11416 -1992.98193 -1089.24121 -673.32864 -476.44608 -626.86461 -555.23320 -505.94427 -684.24149 -519.28695 -542.23489 -526.21257 -512.81745 -383.39256 -355.53699 -291.81658 -282.65824 -281.58304 -275.31316 -259.41771 -227.33929 -125.28600 14.50163 240.30656 481.73090 586.80999 684.57450 712.94401 825.21884 845.35325 989.73533 1061.23667 1133.31757 1158.84166 1167.82302 1159.32865 1169.73388 1157.38332 1139.02531 1079.01348 949.73108 842.71344 684.62865 621.75119 520.96397 419.43622 344.63790 311.23218 316.74319 296.07592 289.80408 282.97924 279.44903 280.92773 272.42361 273.60683 255.41850 210.27525 142.53521 83.92957 47.11541 43.65065 40.32678 44.15395 42.02595 43.29677 55.68592 61.46459 112.23694 262.69252 448.56145 633.24877 664.81804 617.41963 373.33973 257.67336 152.55489 113.21122 88.07908 87.96255 94.38557 96.05613 79.33105 75.46740 84.71764 87.25951 86.26560 79.55134 85.12637 88.75915 84.23058 90.91768 71.73220 45.65075 -42.05694 -164.16673 -579.71904 -1235.28782 -2156.28468 -3346.10990 -3835.21027 -4004.21247 -4033.38410 -4026.34189 -4032.24477 -4025.09738 -4024.34495 -4025.12024 -4020.24399 -4022.10568 -4022.57586 -4012.60840 -4023.16697 -4014.46033 -4025.30355 -4017.41474 -4013.29742 -4018.52783 -4024.02688 -4035.44598 -4031.71827 -4035.52299
-4106.05740 -4103.88220 -4107.00735 -4095.17118 -4099.06731 -4097.09539 -4103.44276 -4097.51935 -4095.48375 -4097.50227 -4092.07654 -4094.54815 -4091.04030 -4093.70169 -4093.10465 -4095.90056 -4098.95703 -4090.99472 -4076.29736 -3956.39183 -3667.97464 -2723.29216 -1816.70620 -1069.81981 -902.14504 -1084.77859 -994.98067 -974.70304 -1253.38159 -1148.65554 -1289.88667 -1310.90506 -1562.57768 -977.25212 -792.53435 -547.41460 -317.61393 -283.25919 -280.23787 -279.71664 -264.97388 -213.81603 -153.58420 114.61528 301.74082 499.66677 646.49307 717.87151 747.94802 864.26687 937.80435 1068.80805 1115.32997 1144.39069 1166.13502 1160.42308 1169.56279 1155.56206 1150.29551 1131.08609 1054.99637 914.47400 795.29002 698.54016 561.87215 486.00680 366.68959 311.93516 289.66608 282.08433 270.40283 275.02930 265.62135 274.39525 269.92008 274.60376 274.23908 240.76282 168.56211 113.87065 73.36681 47.32788 35.52854 38.55407 37.64486 39.53839 50.36489 48.23518 67.84191 115.73959 267.29756 516.05317 613.96161 639.90379 543.59965 363.62221 221.75221 125.24546 98.43089 89.75332 79.91975 85.52865 86.22577 75.69623 76.86183 78.13949 84.32810 75.92112 74.92934 87.05118 75.79961 75.84951 60.61564 53.27087 22.69619 -39.31025 -170.17973 -631.71517 -1423.90066 -2328.52529 -3514.95372 -3957.29857 -4009.12347 -4030.12373 -4030.31497 -4027.21759 -4027.60488 -4028.55741 -4030.73534 -4026.50918 -4020.26195 -4018.65122 -4013.67185 -4016.90230 -4014.67196 -4012.90915 -4011.07966 -4017.04906 -4021.96502 -4020.50070 -4030.91222 -4042.54054 -4036.77649
-4100.54000 -4103.95109 -4105.33157 -4100.65073 -4094.75956 -4108.00544 -4093.44034 -4101.12250 -4099.37525 -4105.38996 -4093.10431 -4097.11350 -4099.49297 -4097.71119 -4089.49858 -4092.90839 -4095.56522 -4091.25986 -4074.84977 -4021.73552 -3644.88073 -3013.98667 -2127.83107 -1638.31897 -1574.90222 -1651.92354 -2056.60608 -1944.24358 -1947.99751 -2090.99805 -2355.68273 -2152.52191 -2085.87841 -1897.89317 -1366.47592 -775.00536 -476.08609 -299.36568 -276.48763 -282.95744 -276.61802 -206.16868 -149.22788 125.97262 320.72773 570.24759 685.21914 787.17202 879.97719 931.56468 1050.10190 1115.13041 1148.84103 1150.76416 1167.60099 1155.28174 1147.58570 1129.45173 1114.64017 1080.80716 1000.23902 865.86418 777.59901 724.44689 511.21131 439.53395 333.08052 282.79864 275.66654 271.83350 268.86822 273.22836 275.18903 270.94660 269.85545 263.51127 244.54793 198.71094 153.13201 93.66996 69.63105 46.42672 44.10828 43.76665 40.12550 52.19089 42.91122 64.30399 82.10319 138.09295 290.04595 497.58075 590.19625 622.05591 482.56150 292.28698 160.32911 121.49356 101.18507 87.24134 85.26482 92.65821 78.14138 81.18979 74.67722 78.30254 75.15819 69.42742 64.28197 60.36221 51.03966 26.92838 24.77104 22.99175 6.99578 -26.52834 -147.63978 -670.59738 -1809.15170 -2767.96341 -3658.70728 -3938.51966 -4029.10426 -4030.43598 -4032.46260 -4026.72417 -4030.15276 -4025.63798 -4027.22714 -4030.55775 -4027.29915 -4017.93987 -4017.90564 -4014.66375 -4015.77539 -4004.00501 -4013.31513 -4013.78370 -4011.32153 -4013.04029 -4030.54657 -4039.38634 -4040.88051
-4101.31731 -4102.26567 -4102.67018 -4091.05523 -4101.50177 -4097.12046 -4096.46779 -4092.40997 -4097.31771 -4097.89654 -4098.42012 -4087.27346 -4092.87229 -4094.71812 -4092.42414 -4090.98143 -4088.27188 -4102.01443 -4082.99143 -4030.76090 -3787.77128 -3431.69701 -2952.05631 -2711.09623 -2681.31210 -2941.26923 -3152.41540 -3339.92261 -3313.65623 -3390.01614 -3154.30918 -3478.36950 -3154.70093 -3000.17207 -2098.92619 -1303.95114 -683.36036 -329.96813 -296.72727 -279.17931 -264.26315 -238.05934 -154.46465 -5.39176 294.03039 500.91193 670.22832 820.18492 932.05226 1020.22458 1106.27149 1148.08487 1155.31419 1166.31011 1159.62388 1146.95015 1113.99998 1088.36768 1060.67859 1017.95653 961.81876 911.13385 773.19508 688.55523 539.29332 439.77372 326.17200 278.51414 275.26248 268.07350 267.93990 258.07356 269.73744 270.69734 266.71739 261.20807 235.10919 176.69271 125.98884 73.42770 52.16462 50.40167 45.80188 37.93156 42.56280 49.31484 47.54787 69.43086 109.73129 161.76810 311.60966 440.38097 560.01725 528.03678 397.74392 279.17830 115.52263 102.15277 88.53473 79.17695 80.15561 84.39092 75.74163 70.34520 69.63686 74.40871 64.94581 44.82143 44.72535 8.42623 -30.66570 -43.93128 -84.89720 -93.75012 -95.62568 -92.17784 -272.13552 -942.89110 -1453.58550 -3162.73400 -3731.73715 -3990.62127 -4029.56904 -4029.77852 -4032.24246 -4024.60038 -4033.54888 -4021.58812 -4020.81180 -4017.51873 -4015.08186 -4011.07623 -4007.71062 -4009.77050 -4016.01004 -4015.20924 -4009.56449 -4014.43958 -4005.53406 -4015.34366 -4027.69958 -4042.33234 -4040.35182
-4102.14240 -4107.44127 -4099.36030 -4101.56863 -4101.00898 -4096.23606 -4100.94335 -4101.23210 -4096.33204 -4098.94477 -4089.22385 -4094.51262 -4101.09836 -4087.71696 -4093.57172 -4096.84076 -4093.09837 -4092.22088 -4083.61479 -4080.08483 -4008.80870 -3716.86170 -3690.12224 -3594.81410 -3437.89084 -3650.34994 -3714.74808 -3769.02036 -3775.18103 -3817.37407 -3952.16392 -3881.85512 -3792.53640 -3647.63158 -2646.24609 -1642.19603 -933.49266 -417.53071 -305.42826 -279.35658 -273.12390 -249.18326 -182.89217 -59.49094 170.17787 414.72105 561.58238 829.38712 935.41834 1031.91715 1087.55513 1145.37240 1157.94593 1161.51567 1139.12925 1113.00811 1084.41290 1039.96101 1006.26841 975.88540 930.20899 893.96895 842.78319 755.02091 624.32108 424.51053 317.72197 281.52900 260.92350 268.93195 271.97025 268.43933 269.78797 268.62733 267.16639 253.20599 211.26561 141.90145 98.06356 70.13793 49.12535 44.55278 46.26996 48.41395 49.33337 45.00517 60.31773 70.37246 115.00623 155.66656 289.44909 373.04823 440.42129 443.23522 317.40710 203.32954 117.56929 95.86872 86.81473 82.12688 79.41619 75.59392 73.35614 64.24308 63.42596 30.22703 26.56531 13.32579 -51.08108 -55.89379 -90.01768 -125.81448 -142.17115 -151.22688 -165.92587 -187.90102 -463.00803 -741.74283 -1979.14860 -3367.86292 -3762.84474 -3990.14856 -4024.25966 -4027.27152 -4025.63865 -4030.90883 -4022.88503 -4022.39351 -4013.77439 -4018.11370 -4015.67329 -4009.27121 -4005.34816 -4001.86447 -4007.48977 -4006.68488 -4003.20517 -4006.77659 -4010.99867 -4022.29214 -4029.75701 -4039.28652 -4043.86716
-4102.91741 -4102.78039 -4096.40000 -4104.22323 -4099.29567 -4102.51046 -4099.57606 -4101.89970 -4096.19622 -4095.58783 -4098.96439 -4096.13244 -4093.11592 -4092.90647 -4096.35508 -4087.32116 -4093.70753 -4087.41067 -4092.23209 -4089.83434 -4086.69280 -4004.28336 -3965.24016 -3913.77535 -3950.64296 -3992.13509 -4042.06997 -4065.15874 -4053.47775 -4061.37643 -4063.58112 -4068.44962 -4007.62791 -3909.89536 -3202.96125 -2128.96311 -1354.98279 -579.24734 -321.48833 -287.92014 -278.60646 -273.85472 -249.08177 -133.25257 -26.42206 246.45562 500.71980 795.12703 928.99285 1007.76977 1054.76836 1113.37812 1121.42846 1132.35180 1115.69836 1072.94035 1022.70329 955.62770 939.21065 937.14855 919.13981 880.40855 860.21156 796.44590 681.53322 546.58396 396.64097 321.60781 268.27737 258.56346 268.13246 268.89744 276.79325 263.34635 257.73580 240.41070 171.65345 129.67187 81.39637 66.46165 50.94642 51.75669 45.71746 46.05617 48.40876 53.02478 67.67925 98.13310 139.33845 168.20116 200.83512 232.42453 274.53685 320.56889 217.41258 161.48522 100.54649 91.24557 82.55121 79.10572 65.33191 60.91275 56.39036 37.28766 21.73679 -22.66659 -30.43566 -105.00687 -137.52090 -141.03008 -197.50418 -208.48761 -239.83671 -229.17710 -214.43737 -268.20171 -452.10342 -1014.74384 -2216.36396 -3233.24348 -3759.68593 -3993.95846 -4032.00749 -4033.38223 -4021.62673 -4016.11160 -4020.37457 -4020.49502 -4014.83280 -4023.19226 -4016.20816 -4009.67707 -4009.38250 -4008.41545 -4004.69087 -3997.51387 -4005.83249 -4007.62227 -4009.80513 -4023.14834 -4028.82207 -4042.52118 -4044.19980
-4097.91562 -4103.39688 -4098.68506 -4098.02598 -4111.89502 -4099.28025 -4104.77645 -4101.70844 -4099.47463 -4102.89689 -4090.55488 -4100.54730 -4097.25000 -4101.08250 -4091.42002 -4092.20994 -4093.78660 -4091.37954 -4095.79975 -4097.54732 -4087.06071 -4086.26327 -4087.89843 -4075.55450 -4073.08634 -4057.65359 -4079.68926 -4087.94817 -4085.17393 -4093.97758 -4090.83984 -4082.55942 -4055.99633 -3923.36573 -3453.99050 -2644.22639 -1597.21391 -834.52454 -418.68718 -284.84567 -284.29164 -269.64203 -261.10191 -178.44531 -148.25495 78.68338 338.68126 724.81093 911.06728 995.86926 1040.72395 1075.85863 1100.10773 1091.84514 1067.84929 1018.80454 956.52778 919.24735 821.85948 834.27262 844.97184 857.05058 856.64333 839.14259 741.13388 650.58635 481.32252 354.10515 316.59234 276.41388 268.03843 264.28723 271.36686 272.36536 259.29044 222.80302 180.15671 99.79789 68.99137 59.35611 52.36333 56.94854 50.37450 55.43998 54.88824 64.23158 74.11608 113.02286 165.89377 178.91036 154.85972 138.57967 161.34103 196.09172 156.20790 129.73570 94.55684 81.60754 75.07893 57.31438 53.06666 13.19524 9.28246 -12.92531 -55.72410 -93.03215 -137.27610 -184.56016 -206.27736 -230.73095 -247.64564 -252.45913 -267.65963 -271.70957 -290.15766 -493.54412 -657.98502 -1485.74150 -2298.54004 -3378.74917 -3845.42892 -3999.12701 -4023.11158 -4026.42098 -4015.68996 -4017.84514 -4020.86440 -4015.33587 -4018.76573 -4009.73487 -4008.75734 -4006.32343 -4003.96530 -4007.08859 -3995.51102 -3999.04178 -3994.26129 -4004.41384 -4008.08368 -4014.71313 -4028.55555 -4051.01881 -4045.68172
-4101.12481 -4102.03837 -4107.04292 -4095.98987 -4095.82083 -4099.21237 -4101.37890 -4102.15667 -4100.17691 -4105.46195 -4097.40491 -4097.62070 -4096.38622 -4096.00129 -4099.92355 -4104.22411 -4094.77875 -4098.57859 -4102.48144 -4092.64013 -4098.18403 -4093.42960 -4096.48036 -4099.27806 -4095.74935 -4096.42364 -4096.41755 -4100.26787 -4096.30273 -4102.17921 -4093.99000 -4092.06154 -4084.85977 -4038.41338 -3815.96252 -3000.63002 -2129.82832 -1125.08128 -501.43843 -322.48532 -281.76857 -274.88827 -267.13563 -227.63899 -168.71032 -66.19250 250.39391 610.96669 836.23589 937.99306 981.73093 1013.22542 1032.79204 1005.03733 999.83322 934.66578 889.37309 648.63537 676.30407 665.55574 711.84358 793.26419 849.84020 862.13199 803.35888 746.63357 629.24810 514.17103 366.14791 312.88203 275.43553 264.59531 268.63515 265.86070 259.82765 229.62987 172.92521 104.24413 63.02813 57.61520 59.62468 57.85404 51.56549 49.83185 52.32275 63.16276 71.28516 138.54482 197.02197 206.74127 146.19204 102.85060 118.38524 122.12078 114.43304 98.12413 94.27402 74.72686 65.21404 27.67789 -11.42126 -83.53371 -65.73289 -119.53835 -160.82685 -173.59833 -193.08603 -236.97163 -259.70831 -277.34297 -300.34052 -354.81356 -388.21546 -452.81266 -681.69103 -788.69913 -1200.84127 -2280.27068 -2574.00015 -3607.86991 -3945.14919 -4024.18914 -4027.38185 -4025.82351 -4025.27445 -4022.22561 -4016.29321 -4023.29524 -4007.43168 -4008.93135 -4005.73912 -4005.31949 -4004.90836 -3997.71023 -3997.31967 -4001.64487 -3993.70943 -4002.59403 -4008.92591 -4023.24989 -4033.87375 -4048.14199 -4049.18234
-4102.03597 -4104.29584 -4102.70109 -4104.41223 -4097.28076 -4102.16807 -4101.59429 -4094.45018 -4097.42852 -4096.85954 -4106.09761 -4100.19504 -4100.08448 -4094.84139 -4101.77363 -4104.45349 -4094.00744 -4102.81132 -4101.39325 -4107.94301 -4102.47198 -4100.17974 -4098.15221 -4102.73089 -4102.24442 -4105.33737 -4098.99728 -4101.02238 -4101.21078 -4092.02758 -4100.38421 -4089.34111 -4089.54953 -4071.09170 -3954.71276 -3446.33216 -2704.23570 -1478.29800 -814.97084 -385.09831 -290.65120 -282.36499 -274.13114 -263.94275 -215.77343 -51.44859 44.84925 404.53686 814.96367 921.29011 966.45020 966.85140 979.32314 952.59553 853.55622 708.53958 594.16842 464.85542 396.29716 371.43431 553.62263 662.05553 803.29856 863.51322 876.49223 836.17574 766.57093 645.00641 562.75367 408.69584 349.59700 292.64534 275.03421 273.70884 265.50400 233.07323 176.64449 123.49434 78.19936 59.16757 61.62197 58.42577 62.89384 47.61236 53.50306 62.65407 77.46059 149.80498 225.16422 228.85649 178.74081 95.11427 76.77110 87.08316 98.38379 82.92279 75.89256 51.00119 24.66431 -20.19413 -87.51206 -153.33375 -175.04326 -200.96649 -225.56908 -244.53774 -276.72072 -295.77866 -352.01914 -361.93252 -395.05053 -693.91354 -1045.69537 -1102.99497 -1383.36410 -1833.06187 -2333.68537 -2589.89353 -3393.94282 -3817.98882 -3998.78358 -4020.88576 -4025.00828 -4029.44831 -4018.59691 -4013.33046 -4011.62082 -4003.83001 -4008.23317 -4007.38688 -4001.05360 -4000.65560 -3994.10190 -3992.56902 -3998.00530 -3998.83096 -4000.12838 -4004.29397 -4006.45023 -4014.36602 -4035.45728 -4057.20877 -4059.62765
-4103.01918 -4103.45737 -4100.09942 -4096.67677 -4102.66926 -4099.60957 -4099.73208 -4105.30960 -4097.17873 -4095.67884 -4102.36122 -4101.46330 -4105.54023 -4103.78260 -4104.17015 -4104.37065 -4107.52058 -4108.19112 -4105.28774 -4107.25318 -4111.34133 -4109.33929 -4113.64526 -4113.71700 -4111.36853 -4110.05155 -4115.25574 -4107.95876 -4110.23978 -4106.30795 -4116.70810 -4103.31601 -4103.76587 -4088.07558 -3991.45888 -3606.50069 -3118.29480 -1813.71890 -1036.66821 -354.53093 -297.33942 -283.58792 -277.20884 -265.97128 -221.06683 -130.40942 18.80167 399.08179 605.62004 871.73280 939.06225 926.27201 898.09024 893.90195 702.64457 514.03477 265.44249 164.57001 86.85990 155.76464 389.36153 541.43782 753.79209 836.33312 899.79522 928.22417 949.41670 892.52401 766.43162 591.26079 419.96785 345.76388 294.43373 287.29516 269.50824 248.99997 174.33352 128.68580 75.45137 60.41575 67.55640 60.75678 62.50445 51.67058 55.79415 64.17109 79.28666 130.13584 219.34875 223.86073 177.84757 101.02061 71.59881 65.59549 77.52421 73.79245 67.99512 32.28803 -12.09344 -97.01894 -185.08417 -225.54892 -226.73223 -260.13278 -265.10902 -340.90253 -326.00595 -463.56467 -739.23556 -949.36717 -1349.74622 -1532.54324 -1852.10438 -2174.18148 -2551.55597 -2936.08035 -3067.23629 -3558.89979 -3784.68381 -3933.22813 -4010.22881 -4022.15316 -4024.42475 -4021.81186 -4013.23370 -4014.16765 -4009.77786 -4003.38333 -4007.29532 -4008.97737 -4001.21904 -3996.59274 -3997.38902 -3991.25788 -4003.73350 -3999.42142 -3997.26942 -3999.65055 -4002.72762 -4020.74691 -4036.60700 -4052.06013 -4059.43582
-4102.17025 -4101.86532 -4103.05597 -4104.97297 -4100.67467 -4102.95324 -4099.05036 -4096.55481 -4100.50233 -4105.27594 -4101.76490 -4111.21005 -4106.91956 -4104.64324 -4109.73769 -4115.45993 -4119.91670 -4115.13074 -4114.03693 -4119.18899 -4113.92764 -4121.46824 -4118.92710 -4114.11347 -4117.36438 -4118.74625 -4125.55939 -4119.72081 -4118.54441 -4117.84896 -4117.13827 -4117.20635 -4109.68282 -4102.06057 -4071.81904 -3940.05757 -3141.17745 -2115.42128 -1065.13671 -579.25715 -334.09968 -289.36539 -281.11105 -266.59236 -231.63927 -151.06183 -53.34518 254.29981 522.35153 796.77389 863.54763 810.08114 725.40219 534.39960 405.50970 323.74189 60.83581 -13.43994 -27.29339 29.22490 220.72053 357.42559 667.98823 803.79796 889.53966 945.31323 995.33328 994.17911 863.25813 693.52948 551.15171 435.92340 415.28119 315.00277 288.59423 254.43848 199.11482 121.84784 92.86160 71.68796 63.92873 63.82442 57.60607 54.57759 59.45991 49.11794 80.36956 120.20508 213.82019 223.71780 190.48289 103.57883 73.64212 68.33376 77.89697 75.18777 56.84252 14.47756 -52.29283 -166.13386 -226.99091 -260.25880 -299.31031 -339.37065 -408.64776 -568.62536 -630.94165 -1003.03591 -1446.52957 -1540.29111 -2152.85524 -2706.50591 -2803.94498 -3203.03950 -3360.17709 -3473.11088 -3764.22685 -3916.26968 -3967.03695 -4009.53566 -4019.28139 -4028.27314 -4015.37173 -4017.85670 -4012.96982 -4010.76674 -4010.02435 -4008.44802 -4003.19947 -4008.59437 -4001.57512 -3998.24502 -3994.99266 -3996.85946 -3988.93271 -3989.85449 -3994.04195 -4007.32268 -4010.71678 -4016.75802 -4039.28180 -4063.19594 -4056.36803
-4108.58496 -4096.56279 -4104.60111 -4099.54240 -4103.54860 -4112.09172 -4110.22595 -4113.27807 -4097.00048 -4112.17992 -4110.80920 -4106.81222 -4116.85922 -4113.66417 -4113.47940 -4113.52326 -4120.65146 -4117.37465 -4126.07905 -4121.89749 -4119.55334 -4128.38411 -4128.22051 -4126.81386 -4128.14775 -4122.75355 -4134.53857 -4131.03825 -4129.00254 -4125.46160 -4126.19014 -4122.22182 -4131.82225 -4119.13609 -4110.66102 -3932.69955 -3583.43642 -2467.03454 -1390.67230 -622.91431 -354.98084 -302.38146 -264.19199 -227.19351 -156.46795 -75.80468 13.99424 221.63157 498.08159 636.23382 730.95148 534.37419 419.78424 314.40681 94.53587 -43.46888 -115.65157 -139.80629 -75.76399 -15.24857 141.09849 309.84274 571.90465 726.58826 842.79259 926.75279 953.67361 1004.46312 968.66318 853.91210 739.39384 618.22534 500.76772 362.76522 302.26894 273.07455 209.33746 165.87631 102.03686 76.58024 67.33372 61.09767 61.07533 58.76826 46.06724 52.88336 60.00428 105.47342 194.04845 207.87052 158.46058 77.21087 68.48140 66.31775 65.55172 71.51529 48.19915 -32.82667 -100.89336 -197.76715 -321.23019 -387.36047 -511.21582 -644.05305 -788.47606 -1099.71077 -1481.08276 -2248.24824 -2430.22058 -2908.08762 -3250.40635 -3180.24478 -3623.78739 -3494.36814 -3939.75761 -3934.50297 -3998.82349 -4003.44940 -4019.14414 -4026.41115 -4019.37323 -4021.33657 -4013.47069 -4011.22573 -4012.46243 -4015.83647 -4000.87375 -4006.81696 -4003.07406 -4009.58010 -4004.04978 -4002.42859 -3996.34374 -3995.15425 -4001.91950 -3995.25462 -4000.35260 -3999.24435 -4012.63309 -4022.56722 -4035.30774 -4059.25915 -4062.64319
-4111.09115 -4109.75511 -4105.42443 -4113.70991 -4107.26200 -4106.63626 -4114.91735 -4116.24090 -4111.42068 -4111.04476 -4114.49606 -4114.84841 -4121.17850 -4125.13615 -4125.74705 -4132.90460 -4127.00098 -4122.51478 -4133.02538 -4133.99782 -4142.10307 -4137.97137 -4139.62144 -4138.40334 -4138.48422 -4143.58012 -4140.23085 -4143.49346 -4138.29335 -4139.18332 -4136.82967 -4141.66221 -4133.47487 -4130.01890 -4123.59881 -4036.19614 -3617.69717 -2913.69696 -1816.43740 -969.73022 -450.18471 -303.77692 -248.69072 -186.13757 -60.45840 57.04742 105.89532 246.95031 426.22940 543.35389 384.41499 275.64659 143.37060 -67.00515 -138.24314 -184.00578 -196.88912 -140.08020 -91.37086 17.59513 92.79709 163.53478 425.27593 622.91423 752.43291 864.39388 915.12264 953.48695 942.61286 923.83598 861.83968 756.86585 683.15588 493.96393 397.50971 294.68776 226.85097 188.97101 90.82126 75.72336 65.57562 68.30437 60.74756 50.58473 39.44605 27.93536 25.11746 65.38421 128.94013 158.60036 140.12720 70.85253 68.80407 68.93632 66.23329 61.93516 21.77823 -62.61130 -149.22235 -295.26655 -390.26095 -688.21983 -923.27793 -1215.51938 -1840.71706 -2242.75723 -2465.93680 -2775.51029 -3146.62609 -3537.71725 -3814.54562 -3847.33159 -3964.52739 -3968.08048 -4016.77464 -4013.36764 -4023.04470 -4024.85501 -4019.36152 -4015.04192 -4015.79694 -4007.59162 -4011.09075 -4012.80989 -4011.39979 -4009.62770 -4009.11613 -4009.17770 -4008.46957 -4004.69978 -4000.92038 -4013.16727 -4006.52156 -4011.72733 -4006.20138 -3996.61793 -3997.24656 -4008.29671 -4022.00219 -4035.30819 -4043.70027 -4060.85034 -4062.89813
-4110.74294 -4111.24888 -4105.73579 -4111.27252 -4117.53863 -4116.96579 -4107.85556 -4117.61614 -4117.29324 -4119.76663 -4121.71443 -4132.07514 -4121.98765 -4128.99848 -4131.22270 -4139.56724 -4142.21819 -4134.81698 -4140.59576 -4145.17500 -4153.26097 -4145.97524 -4150.03345 -4143.61039 -4155.14295 -4146.05533 -4156.51782 -4149.06475 -4149.46877 -4157.60879 -4153.87872 -4147.40139 -4142.51434 -4140.57011 -4136.84924 -4084.36768 -3858.18044 -3099.47128 -2087.19584 -1461.02378 -685.27456 -373.39734 -236.61908 -119.29396 -5.90996 124.94961 172.95735 230.19783 302.83241 278.55354 168.07906 99.80005 -145.27582 -190.47279 -250.10066 -247.29652 -216.13935 -148.33290 -71.35254 8.92065 43.86143 138.08773 277.86503 426.64820 641.52406 755.54677 860.99081 899.00914 911.05054 893.11511 875.46779 817.44720 732.91477 621.74603 467.89356 303.99971 223.14905 155.60959 107.80134 87.82149 77.13618 73.67274 55.13445 45.11325 24.02126 13.00486 12.93138 18.86722 66.07459 82.43696 73.38975 60.97617 55.68972 58.26723 59.77138 24.89718 -14.70676 -127.93045 -231.85752 -400.38539 -763.49548 -1267.84148 -1802.49696 -2329.85010 -2884.75608 -3081.11406 -3540.28521 -3754.10470 -3837.28220 -3940.77368 -3964.97083 -4016.05942 -4021.05203 -4018.01669 -4028.94140 -4026.85107 -4022.36622 -4019.88213 -4019.57717 -4016.68548 -4012.59252 -4010.07352 -4007.19148 -4016.76899 -4008.06910 -4014.27013 -4003.97203 -4009.59512 -4011.75545 -4004.93717 -4013.74830 -4011.04418 -4009.85827 -4014.52242 -4012.82556 -4014.20566 -4016.35170 -4014.39874 -4013.81527 -4029.45208 -4049.89124 -4075.25668 -4058.15079
-4120.88930 -4116.85371 -4115.72557 -4114.38234 -4119.33446 -4119.49615 -4118.44311 -4132.74192 -4128.85586 -4134.92107 -4126.82464 -4135.38264 -4139.81066 -4135.77598 -4139.52473 -4146.03154 -4142.22024 -4148.32731 -4145.51522 -4154.98839 -4157.12410 -4151.92663 -4158.17573 -4162.21083 -4156.18193 -4163.24655 -4162.13124 -4162.26534 -4159.03810 -4162.01200 -4151.23879 -4160.70255 -4155.24117 -4147.53584 -4151.37452 -4117.75365 -3989.48812 -3521.22246 -2804.23952 -1750.01356 -1155.40348 -531.93545 -339.20648 -202.77382 -68.99223 104.08076 131.51479 163.91829 154.01836 132.10950 29.30883 -143.09492 -207.81523 -262.74117 -271.39573 -265.06499 -227.06610 -138.40439 -44.51287 -4.47508 67.29053 88.45876 169.73020 278.22986 511.63766 599.63208 669.47769 786.12080 846.98188 863.32577 839.15350 822.33928 779.71315 675.77474 504.47630 319.58538 213.51929 130.26853 115.76442 94.78060 87.41864 81.80182 81.56416 55.49190 15.74725 -3.84641 -12.96854 -9.36571 15.70284 29.13840 29.15028 33.65042 38.90118 62.28849 54.50000 8.84624 -50.14847 -180.01045 -379.99876 -562.53908 -1294.24827 -2109.22510 -2789.78041 -3033.89248 -3540.74212 -3823.74293 -3942.27354 -3944.25978 -3987.86313 -4030.77909 -4036.87170 -4028.40689 -4025.35162 -4025.59837 -4024.92718 -4028.81130 -4018.71276 -4027.56254 -4018.64304 -4015.21679 -4011.29468 -4011.38950 -4009.47057 -4008.28839 -4003.57048 -4009.99058 -4010.79309 -4010.59936 -4019.24635 -4023.33203 -4024.79197 -4015.01576 -4022.92545 -4024.27283 -4028.60460 -4027.91351 -4023.54160 -4024.98141 -4023.39409 -4040.17241 -4046.39927 -4070.85152 -4066.90475
-4119.42744 -4121.41565 -4121.27196 -4124.84893 -4122.00016 -4125.67128 -4126.68495 -4126.93248 -4129.71045 -4139.83048 -4136.86024 -4146.55593 -4144.30944 -4154.19097 -4143.22991 -4147.20222 -4155.99294 -4153.71306 -4157.94262 -4155.47798 -4158.32024 -4149.72083 -4154.35979 -4157.46033 -4162.55762 -4169.97759 -4171.71780 -4158.90342 -4168.64682 -4177.23943 -4164.95572 -4155.58928 -4163.37501 -4163.64046 -4157.63305 -4141.63892 -4094.43772 -3848.10792 -3507.52270 -2204.88161 -1541.33589 -925.63338 -639.95812 -349.51614 -270.21158 -112.97893 -19.16544 65.68021 51.97009 -51.52408 -112.02111 -229.89130 -272.85860 -300.97668 -288.73713 -274.57357 -215.48796 -169.69260 -87.99743 -25.92102 32.94223 69.42329 87.80508 148.33329 233.08526 467.53068 462.37434 662.42118 707.12699 762.89359 794.05568 775.03780 730.67341 622.29884 442.06762 253.97806 177.19058 132.24471 94.29660 86.28486 89.91588 91.49147 65.92555 53.05245 18.88799 -4.69937 -14.06001 -5.90047 -19.27644 -25.95072 -20.67725 -6.74906 28.12852 34.61796 22.01582 -7.53816 -112.11089 -295.17156 -624.87747 -1214.19601 -2182.83021 -2950.17027 -3642.64013 -3740.85028 -3972.74465 -4017.71810 -4033.08991 -4032.02393 -4036.14609 -4035.98303 -4040.35350 -4034.59455 -4029.74939 -4023.56353 -4024.44735 -4017.33527 -4011.67930 -4016.77871 -4018.72927 -4012.54712 -4004.93233 -4018.49949 -4011.68551 -4014.05459 -4008.51395 -4020.80522 -4022.16777 -4022.01082 -4017.51239 -4030.87474 -4041.93824 -4047.60792 -4045.00476 -4044.55686 -4043.38790 -4043.47208 -4029.14276 -4033.23341 -4033.59476 -4038.63011 -4042.84213 -4058.57605 -4059.07260
-4119.64862 -4134.74139 -4123.98353 -4116.97761 -4127.25568 -4130.42165 -4139.76322 -4133.92351 -4139.52977 -4140.75495 -4151.40571 -4145.45299 -4146.77360 -4154.09670 -4157.64810 -4155.42714 -4156.95522 -4161.72893 -4160.05055 -4155.76977 -4164.26613 -4166.73345 -4159.67845 -4169.32393 -4162.87639 -4156.87267 -4164.79559 -4176.73213 -4165.46879 -4168.92987 -4162.27401 -4161.28166 -4159.75565 -4162.64027 -4165.69874 -4149.59659 -4135.00838 -4046.19676 -3610.32631 -3325.38210 -2367.31525 -1970.63972 -1212.10212 -1098.34275 -1029.42722 -488.65852 -299.65107 -142.96576 -73.22716 -136.00483 -207.15176 -290.58303 -305.58730 -292.49292 -287.83807 -284.95651 -244.20515 -175.12766 -127.27659 -72.98343 -3.68103 29.83706 67.32947 124.86832 132.71338 187.64686 270.77413 461.63220 502.26231 567.58649 593.21190 625.34182 504.94813 486.04499 378.28858 219.97998 144.29390 108.61516 98.95853 90.52616 101.14384 97.65138 79.47780 49.66539 30.91512 4.23091 -5.42214 -3.53776 -18.07479 -43.28219 -37.62015 -20.84653 -16.46878 -6.17076 -11.65145 -93.57528 -166.18632 -464.89583 -946.31958 -1942.45221 -2899.79551 -3308.27162 -3685.00987 -3849.90462 -3949.19676 -3983.10576 -4033.17637 -4036.32939 -4029.22870 -4031.31220 -4028.75709 -4022.23464 -4028.22017 -4026.22740 -4021.89018 -4019.73645 -4019.82706 -4009.98410 -4013.76032 -4013.64684 -4002.21196 -4005.95206 -4011.18360 -4017.92741 -4016.03719 -4022.97252 -4029.62359 -4038.19961 -4043.38243 -4055.33566 -4058.52708 -4067.96972 -4063.95256 -4069.58467 -4061.57671 -4060.71578 -4051.80171 -4043.22967 -4047.32004 -4031.61368 -4044.30876 -4051.11555 -4061.07248
-4133.63473 -4129.15175 -4130.32086 -4128.06950 -4135.19366 -4143.07107 -4140.48482 -4140.39543 -4142.27484 -4152.91884 -4153.98923 -4152.41062 -4159.91041 -4163.65595 -4166.66835 -4160.98645 -4162.52721 -4167.15910 -4168.03645 -4164.78059 -4170.11273 -4165.44045 -4164.42072 -4166.33512 -4163.68232 -4164.51391 -4163.62527 -4171.73896 -4174.45888 -4169.61881 -4168.70432 -4170.69150 -4169.80548 -4168.63890 -4169.86446 -4168.88687 -4154.22820 -4091.12836 -3935.79317 -3749.34777 -3483.15587 -3123.46256 -2383.25708 -2240.62902 -1613.19543 -1103.83590 -536.22996 -327.12023 -298.75533 -249.09092 -272.33737 -298.56176 -307.73424 -307.41989 -313.56647 -300.33831 -266.23089 -235.12439 -176.51985 -139.72890 -111.83957 -52.78299 9.23524 43.41989 72.79788 124.92746 189.58997 255.22967 273.21990 319.97572 342.48120 309.27681 267.83449 231.34570 210.73760 156.09976 114.85978 101.39112 102.98729 101.04489 101.04247 97.09586 76.00271 67.08409 26.78456 8.37754 12.63277 6.88336 -15.56746 -41.60986 -50.55220 -46.82589 -41.05643 -59.10620 -96.27216 -176.20602 -342.44350 -877.20486 -1650.08955 -2453.52123 -3220.52994 -3559.68267 -3732.14809 -3839.23697 -3927.54810 -3996.46162 -4021.33859 -4030.18641 -4032.33933 -4026.79592 -4024.91132 -4024.59773 -4024.43578 -4012.13775 -4022.56984 -4021.17899 -4014.49105 -4010.00181 -4019.99890 -4015.19521 -4007.87335 -4011.90073 -4015.33214 -4017.84888 -4026.72086 -4034.65595 -4042.38048 -4052.59932 -4065.39830 -4077.61361 -4093.55753 -4080.13481 -4094.88620 -4101.44955 -4097.11051 -4076.33828 -4070.35126 -4049.58363 -4048.42807 -4041.89248 -4042.40334 -4044.49608 -4042.49003
-4131.77957 -4130.74635 -4139.57088 -4148.24515 -4141.14263 -4149.01041 -4149.81257 -4158.71710 -4156.14679 -4162.45847 -4157.73708 -4165.08583 -4167.57737 -4175.63136 -4169.39142 -4160.98353 -4174.73100 -4175.61299 -4173.38870 -4167.30560 -4173.16622 -4170.18983 -4173.01365 -4172.23655 -4167.69527 -4171.47993 -4170.22773 -4166.25145 -4175.27184 -4167.92412 -4166.64337 -4164.66345 -4169.54744 -4174.05644 -4165.80215 -4161.25993 -4173.78681 -4160.63348 -4127.91585 -4089.10589 -3916.69058 -3811.21047 -3479.79136 -3146.31425 -2717.45279 -2007.61345 -1106.95720 -670.70520 -505.02227 -485.13967 -374.53604 -324.37429 -320.70968 -313.87416 -308.64220 -304.42505 -289.23840 -266.25182 -248.35049 -218.67674 -159.30139 -116.76438 -46.09235 27.34364 49.13716 90.72199 111.08124 128.65581 171.78881 164.93986 179.42133 171.12091 166.79813 132.04655 128.19786 106.50414 113.55756 98.58452 97.57367 97.67765 93.65598 104.10562 71.31852 53.49707 23.14194 7.48854 15.20101 23.07590 -5.07005 -34.23351 -54.02675 -68.88416 -76.60492 -109.69409 -155.05387 -279.21088 -515.77821 -1002.34943 -1975.10226 -2688.74658 -3295.26129 -3543.80394 -3722.82385 -3894.24098 -3968.35431 -4018.98010 -4028.31404 -4027.12108 -4026.64841 -4029.33409 -4023.78883 -4019.87644 -4017.31381 -4013.64684 -4009.88226 -4014.35814 -4021.13237 -4013.31341 -4008.64254 -4017.92028 -4015.46199 -4019.95282 -4020.65651 -4029.21501 -4044.20917 -4048.21518 -4064.23047 -4074.83136 -4078.55558 -4099.71622 -4113.15985 -4126.42790 -4130.47312 -4123.55148 -4109.38423 -4093.68264 -4077.35513 -4061.13907 -4047.95555 -4031.22544 -4019.78571 -4025.41813 -4019.77312
-4131.26989 -4141.38803 -4147.82171 -4152.33506 -4156.40437 -4162.48870 -4171.36462 -4180.28066 -4181.36931 -4183.44730 -4183.91670 -4181.12045 -4180.15437 -4193.56366 -4184.11801 -4185.94814 -4193.16637 -4188.51408 -4191.07716 -4189.79813 -4176.47307 -4182.70942 -4183.35365 -4183.32575 -4186.07955 -4182.77000 -4190.84511 -4178.47334 -4183.21635 -4180.35189 -4176.68699 -4170.43070 -4175.28599 -4172.21770 -4172.17770 -4171.03475 -4173.95751 -4171.01762 -4175.18461 -4171.71572 -4091.54076 -4072.53469 -3920.86553 -3800.59849 -3494.04348 -2314.20172 -2052.86961 -1366.29351 -846.77175 -792.74707 -491.69829 -395.09061 -392.05136 -369.42252 -344.15885 -328.52256 -322.54169 -326.09123 -309.00372 -285.75731 -229.35635 -174.50862 -114.80746 -37.26146 41.15017 71.51516 99.51989 99.70402 118.33336 112.20049 105.25353 103.91150 108.01813 104.67645 107.80668 101.80257 95.23375 103.20603 95.82196 96.30989 83.80575 85.46123 75.48956 40.08736 18.20431 0.27744 18.55468 15.91176 -0.75083 -19.04705 -55.18292 -76.20703 -126.69159 -197.54959 -225.77341 -334.67152 -855.36874 -1375.54875 -2307.55974 -2777.38800 -3398.52272 -3649.80010 -3928.98333 -3990.08590 -4013.52061 -4022.69890 -4029.84546 -4031.55456 -4019.67563 -4020.48252 -4014.06678 -4024.07381 -4008.68927 -4013.11905 -4014.97005 -4015.63494 -4009.97407 -4015.95112 -4017.16295 -4018.54938 -4019.65263 -4024.06985 -4038.91709 -4040.88312 -4052.98775 -4066.85403 -4096.74232 -4105.02321 -4127.25144 -4137.41362 -4146.93569 -4150.35409 -4158.12974 -4148.93381 -4133.05958 -4112.43649 -4089.85641 -4056.01492 -4030.21391 -4017.54381 -4000.32506 -3998.46188 -3997.17600
-4150.37131 -4152.22085 -4152.86390 -4167.42193 -4180.37771 -4174.71692 -4189.77516 -4189.42815 -4197.59142 -4197.28644 -4193.47601 -4213.50609 -4210.96090 -4211.59004 -4201.58469 -4204.11783 -4212.50626 -4210.41781 -4211.18049 -4214.92929 -4214.09897 -4207.29837 -4206.79156 -4206.06940 -4202.87942 -4204.99747 -4208.04712 -4199.52539 -4211.02580 -4200.35745 -4198.55887 -4183.38033 -4193.00121 -4193.27728 -4187.33297 -4196.50576 -4184.87650 -4190.94664 -4180.82591 -4182.61294 -4181.34261 -4163.18981 -4174.36488 -4128.33424 -3821.93765 -3359.83105 -3029.52301 -2091.41720 -1735.86515 -1355.98085 -1104.44200 -692.53338 -614.17571 -565.20398 -502.15506 -550.35428 -472.26507 -609.98857 -441.65987 -344.67874 -292.88656 -229.13564 -148.44372 -41.73017 25.93017 75.37714 93.08261 92.21384 97.70991 99.97092 95.14850 94.85975 102.51151 95.14814 94.30028 89.72120 93.04193 88.12573 92.65534 89.14921 79.26316 69.22488 53.07577 28.26295 -3.90866 -21.51585 -15.36294 12.14181 3.87943 -9.27023 -58.29799 -115.30601 -159.27105 -195.86122 -291.68322 -519.37324 -1089.63214 -1666.59587 -2443.76949 -3110.05124 -3577.99333 -3875.12630 -3987.42358 -4015.91078 -4022.04392 -4027.91731 -4029.11237 -4025.92985 -4012.13060 -4015.90145 -4009.32907 -4006.72583 -4011.23455 -4010.03381 -4007.71777 -4009.87472 -4010.77407 -4018.26437 -4015.85536 -4016.69830 -4018.68887 -4039.44912 -4045.04597 -4060.57967 -4074.33236 -4093.84422 -4107.98187 -4131.58283 -4146.94031 -4163.79611 -4178.26611 -4176.16047 -4166.45879 -4165.19569 -4148.35336 -4107.81097 -4091.41434 -4056.32901 -4022.89412 -3983.41558 -3978.09349 -3969.08091 -3962.72095
-4166.78364 -4173.52032 -4180.07351 -4188.49472 -4191.88532 -4195.77334 -4214.81144 -4233.57353 -4238.44838 -4247.54336 -4256.82252 -4236.56469 -4247.34459 -4249.13872 -4224.36253 -4243.02067 -4240.76807 -4248.58151 -4243.43292 -4250.68838 -4232.97812 -4232.69707 -4242.00988 -4231.43644 -4240.18779 -4249.58378 -4244.59272 -4238.98989 -4231.63547 -4239.57484 -4231.94994 -4232.37055 -4224.31897 -4218.44560 -4229.40828 -4212.69040 -4217.95458 -4215.67983 -4227.98251 -4229.21142 -4219.51406 -4207.85713 -4205.03367 -4164.06251 -4146.25078 -3823.34581 -3642.23317 -3341.19543 -2861.09861 -2344.34861 -2018.29747 -1478.25655 -1214.16568 -1192.98744 -1022.17686 -876.85313 -1090.75985 -1005.22461 -1022.59259 -742.20420 -508.30557 -323.71206 -189.17994 -106.49708 14.20735 69.50780 82.54786 98.95071 95.29193 100.72906 103.52701 99.19372 101.05598 97.90418 84.93954 92.24890 74.55119 81.86944 81.35061 72.90884 70.60818 51.23423 40.67670 25.46656 -4.82682 -27.52099 -16.49556 -7.09844 4.13851 -14.41521 -66.94209 -148.31628 -172.86747 -237.19086 -309.04959 -675.16781 -1342.51397 -1888.43617 -2959.99989 -3463.41456 -3867.60813 -3993.95583 -4022.01420 -4023.13838 -4025.25021 -4021.85122 -4014.45022 -4018.90021 -4011.32224 -4001.76082 -4003.56553 -4010.51167 -4002.73183 -4002.50181 -4010.75359 -4015.72064 -4009.98174 -4018.12854 -4025.65590 -4025.42225 -4047.91322 -4052.54709 -4069.44708 -4081.08749 -4102.63423 -4118.88381 -4139.96773 -4152.30172 -4177.07102 -4182.97712 -4198.17769 -4196.51638 -4183.27136 -4168.63492 -4137.02560 -4110.44188 -4084.83107 -4035.32963 -3991.83706 -3968.73285 -3956.61776 -3925.88528 -3926.53470
-4184.61945 -4185.32280 -4200.88777 -4214.32388 -4226.02996 -4233.83604 -4250.19236 -4262.79004 -4271.59030 -4277.57949 -4286.18706 -4289.98144 -4290.50943 -4284.92943 -4285.41452 -4279.27071 -4280.46718 -4288.20099 -4284.11785 -4273.16029 -4282.42182 -4285.50696 -4280.36797 -4288.75217 -4301.50776 -4294.88991 -4288.94075 -4282.52738 -4304.51729 -4276.32627 -4281.19992 -4274.69063 -4279.08134 -4285.18756 -4273.32200 -4265.39023 -4265.87778 -4268.10423 -4249.37518 -4260.11373 -4252.15486 -4258.80426 -4238.99770 -4234.64218 -4190.74334 -4154.01065 -4117.23231 -3947.45121 -3594.38363 -3198.24120 -2976.14183 -2759.95648 -2592.68874 -2429.02903 -2124.71748 -2420.06816 -2295.19040 -2376.54010 -1721.69962 -1316.62199 -884.83401 -727.57723 -481.61546 -206.39840 -91.09824 36.89291 69.78256 99.64937 99.14905 97.77376 101.59422 93.23320 89.01942 90.03657 79.06280 77.38156 68.35625 72.03224 54.38498 48.21153 43.15061 31.86944 31.99758 13.03042 -22.23820 -24.20276 -23.68794 -19.93190 2.27495 -26.99053 -84.50556 -150.39036 -205.54078 -242.66338 -306.98264 -593.32566 -1290.55284 -2439.98679 -3248.01847 -3619.35070 -3933.29853 -4011.89196 -4027.42322 -4030.13558 -4027.39661 -4017.53648 -4019.56448 -4009.16123 -4006.96568 -4000.88142 -4005.82628 -4003.94415 -4003.71673 -4009.38397 -4009.33646 -4013.42264 -4016.47447 -4025.96448 -4032.30786 -4039.68110 -4055.69114 -4071.63324 -4081.52995 -4107.20753 -4131.94494 -4144.42380 -4170.23846 -4180.81647 -4194.78730 -4198.95116 -4199.94780 -4193.40312 -4182.75189 -4153.58352 -4127.75211 -4083.90673 -4056.41541 -4015.22078 -3970.57973 -3945.43606 -3902.26858 -3896.45275 -3896.94852
-4222.75807 -4212.22637 -4236.47284 -4245.78609 -4266.65689 -4293.90943 -4292.36522 -4306.88602 -4303.93825 -4328.11407 -4349.79481 -4342.96722 -4342.02266 -4360.60850 -4375.80204 -4351.22638 -4341.18299 -4344.44688 -4340.08478 -4329.92891 -4338.23224 -4331.85380 -4354.41328 -4349.81846 -4346.85722 -4345.89998 -4341.37134 -4357.90755 -4353.77299 -4350.72369 -4345.22546 -4340.77315 -4330.50005 -4323.29682 -4334.69878 -4322.64744 -4314.67073 -4311.33417 -4336.17471 -4308.58148 -4282.05362 -4303.80506 -4291.23461 -4277.18250 -4265.42933 -4246.57118 -4227.09215 -4192.36367 -4134.04880 -3847.14801 -3771.99203 -3571.20728 -3413.65730 -3329.26748 -2814.57118 -3048.52138 -3185.13902 -3134.27534 -2826.27713 -2693.33150 -1912.99131 -1474.18125 -1241.63090 -570.58295 -176.36213 -10.55273 62.53779 76.24300 96.56057 89.26467 87.02325 92.41409 77.06169 68.59931 71.80416 60.78523 51.89665 41.37508 50.88436 28.62081 14.23184 -1.16615 2.93234 -16.78597 -26.43386 -37.85857 -28.30410 -24.94795 -36.11300 -68.07083 -104.83620 -169.14803 -171.64887 -108.74401 -121.50611 -350.58259 -1415.37059 -2558.70306 -3416.72525 -3689.87412 -3919.27681 -4002.63134 -4017.39848 -4028.42190 -4018.12576 -4010.95014 -4010.18680 -4006.46640 -4004.02956 -3996.14981 -4014.31222 -3991.30974 -4006.55165 -4008.62935 -4012.27424 -4016.01916 -4023.92229 -4032.12846 -4050.96621 -4064.37362 -4074.46322 -4093.98125 -4110.15804 -4135.16519 -4153.10576 -4165.74751 -4182.74990 -4207.20414 -4211.58664 -4213.30918 -4195.78127 -4191.25260 -4161.35236 -4137.16033 -4100.39703 -4055.40764 -4029.68318 -3962.51518 -3936.31907 -3904.57223 -3883.60324 -3865.67265 -3867.36205
-4265.45895 -4253.00225 -4280.51280 -4283.09412 -4329.38899 -4341.17207 -4354.71153 -4384.07059 -4381.92791 -4399.18250 -4393.26483 -4388.12735 -4388.01152 -4402.05926 -4402.55270 -4414.50739 -4408.06218 -4383.52737 -4411.45605 -4421.02927 -4392.17067 -4391.43519 -4407.14652 -4408.33171 -4413.20688 -4416.31658 -4391.13201 -4411.47118 -4395.83700 -4417.15741 -4403.60530 -4405.40952 -4409.12218 -4387.21633 -4391.83180 -4395.09456 -4407.38534 -4393.18485 -4376.24136 -4363.89527 -4362.23063 -4352.30673 -4368.16287 -4332.01087 -4324.03388 -4313.06808 -4269.44504 -4248.37444 -4220.09618 -4192.85618 -4146.51405 -4064.00182 -4024.86039 -4005.31238 -4073.98135 -4006.07104 -3919.72673 -3885.47866 -3773.12092 -3214.69078 -2814.56533 -2478.90913 -2063.63335 -1226.04111 -485.75457 -159.54454 32.98246 75.71367 90.99369 92.23637 81.13775 74.87788 62.74107 63.10445 47.24850 30.48686 26.47396 28.64700 7.44628 -1.60429 -6.12368 -25.90901 -30.45694 -29.41235 -39.26707 -47.18014 -51.27980 -51.73898 -42.44419 3.12754 -14.98894 -18.66033 5.14330 224.80021 202.43147 -103.99000 -1105.15049 -2267.09380 -3088.03033 -3461.65260 -3790.62091 -3966.86789 -4025.44887 -4023.90726 -4014.31794 -4011.47077 -4002.71757 -4000.10412 -3995.58262 -3997.58193 -3997.09582 -3995.47617 -3998.68627 -4004.04187 -4013.34969 -4020.73422 -4032.12738 -4054.96815 -4071.08405 -4076.98741 -4091.47108 -4133.11657 -4146.11423 -4162.61455 -4187.39047 -4192.85101 -4203.84062 -4209.75031 -4206.69131 -4201.45029 -4187.32974 -4159.81671 -4125.56046 -4100.78204 -4060.33202 -4019.67136 -3974.10964 -3931.48592 -3905.89926 -3880.46527 -3851.89798 -3845.88987 -3840.58986
-4300.83678 -4303.39199 -4320.81708 -4347.17762 -4366.40286 -4374.04323 -4404.79089 -4426.55220 -4433.02526 -4451.54771 -4466.54382 -4472.08756 -4462.21744 -4472.18232 -4469.18161 -4466.61448 -4475.91223 -4452.22662 -4463.19918 -4463.04782 -4456.87650 -4448.90748 -4455.59928 -4446.94232 -4437.49445 -4461.83226 -4473.62661 -4458.78107 -4457.96673 -4447.87442 -4463.16348 -4443.49142 -4446.87481 -4441.90490 -4450.18888 -4440.74872 -4431.99579 -4447.77341 -4436.84921 -4449.73165 -4433.06584 -4405.44892 -4397.93426 -4383.69282 -4387.33537 -4350.26640 -4333.77098 -4313.46695 -4282.75497 -4257.58160 -4240.42367 -4204.57743 -4189.34807 -4167.89197 -4143.82121 -4127.73427 -4145.41488 -4100.00914 -4058.59900 -3861.15921 -3608.27946 -3386.64261 -2726.09279 -1777.50650 -736.67921 -364.98811 -45.39243 51.56420 54.20875 70.94888 67.63060 58.82117 41.06022 40.39329 25.36405 14.95652 -0.61554 -19.90413 -34.63085 -31.75361 -41.56433 -45.56575 -44.31533 -60.79540 -74.39063 -57.58849 -56.23357 -39.11604 10.40651 110.63538 274.58487 423.43394 410.57559 486.80563 194.82729 -415.10756 -1065.36282 -2150.50211 -2723.98398 -3230.86162 -3709.42613 -3911.54032 -4008.70294 -4021.65685 -4014.07962 -4010.46569 -4006.08288 -3998.27913 -4004.38666 -3988.50812 -3988.18647 -4000.72851 -4005.66261 -4011.89508 -4031.05681 -4036.49272 -4047.91634 -4071.75748 -4080.07378 -4110.03119 -4132.46418 -4155.58708 -4168.90906 -4187.83438 -4201.13857 -4204.72714 -4210.22321 -4201.51248 -4202.11499 -4183.24943 -4158.47976 -4131.89344 -4094.27177 -4045.03844 -4024.82958 -3980.19507 -3952.82126 -3913.84531 -3870.52496 -3853.09827 -3837.09569 -3831.19298 -3829.66415
-4354.89978 -4356.17619 -4372.29081 -4400.52117 -4429.05328 -4453.07357 -4463.98849 -4485.06791 -4490.30250 -4511.21637 -4515.27351 -4512.88024 -4515.91740 -4509.37393 -4514.37497 -4510.77054 -4502.43112 -4506.52500 -4493.00492 -4493.17925 -4497.30930 -4499.95135 -4486.77908 -4495.83144 -4491.16989 -4493.91821 -4492.21278 -4493.43353 -4482.98469 -4482.88073 -4484.33197 -4476.80403 -4487.23732 -4478.97647 -4493.94002 -4490.24829 -4484.85975 -4477.45876 -4478.31030 -4476.00756 -4472.55332 -4460.82970 -4455.52021 -4445.39403 -4421.48025 -4412.60031 -4371.50082 -4357.00521 -4338.95683 -4312.46001 -4290.72997 -4265.07615 -4251.78037 -4232.00969 -4213.18552 -4198.47931 -4196.96977 -4172.08074 -4156.09412 -4067.24741 -4004.93070 -3835.43967 -3337.43573 -2316.54438 -1245.88024 -437.17933 -114.06639 8.12017 41.82087 41.11386 36.86851 28.29872 17.47338 4.35078 0.58600 -10.62586 -32.90681 -42.25645 -54.57977 -66.40717 -73.67027 -87.22492 -83.48391 -80.65821 -77.57798 -66.66045 -43.67263 11.71420 193.98569 543.35677 727.61885 741.87723 837.58413 306.72555 -327.50242 -767.59163 -1382.78561 -2224.50279 -2672.50657 -3399.86297 -3820.27167 -3955.62188 -4008.42506 -4024.41691 -4012.44449 -4015.86274 -4002.19101 -4005.41969 -3992.69096 -3993.54207 -3992.26834 -4003.03898 -4014.53007 -4019.38201 -4031.83285 -4051.62854 -4057.75925 -4093.92657 -4109.01000 -4127.41219 -4151.08570 -4181.48016 -4192.43035 -4200.62260 -4207.06613 -4207.66494 -4202.84316 -4186.31816 -4159.98887 -4142.78831 -4110.88478 -4072.20767 -4046.43988 -3987.97694 -3965.50539 -3938.43549 -3906.69548 -3878.37827 -3844.53903 -3837.87409 -3828.02897 -3831.53364 -3824.08015
-4406.81896 -4408.57056 -4425.89648 -4451.57637 -4468.57742 -4483.65621 -4514.90522 -4521.64715 -4526.56677 -4535.63363 -4530.63775 -4537.28605 -4538.64993 -4540.80253 -4535.10755 -4527.32944 -4524.02013 -4515.94721 -4515.38564 -4505.11328 -4513.73600 -4500.41895 -4505.98025 -4497.90946 -4497.58033 -4497.48787 -4492.62867 -4488.48973 -4488.27544 -4485.86337 -4491.25233 -4490.96129 -4483.86104 -4488.92880 -4494.81038 -4495.76707 -4488.25553 -4488.46141 -4496.26301 -4490.14999 -4494.58934 -4481.86844 -4469.64861 -4448.43358 -4438.00253 -4422.32242 -4400.45202 -4371.70190 -4357.22119 -4334.38042 -4287.55963 -4227.15356 -4226.64843 -4183.07397 -4147.20932 -4169.29653 -4174.35656 -4183.11286 -4171.71577 -4138.64991 -4102.45796 -3919.00162 -3606.87441 -2478.78183 -1551.92850 -630.61235 -296.26041 -30.03443 -4.05055 18.11420 12.85157 -4.90628 -9.80203 -10.67263 -15.96215 -49.00386 -70.39574 -69.23191 -80.03054 -94.56117 -97.36315 -98.39605 -91.85853 -50.30148 5.31823 -5.55100 -15.30736 86.91183 -19.32710 459.61997 466.40963 584.00649 132.91494 -692.96618 -1183.60712 -1857.36095 -2451.40583 -2879.16323 -3604.31070 -3658.61271 -3885.64612 -4023.04251 -4034.28204 -4029.20139 -4021.81033 -4010.95374 -4002.72331 -3992.06472 -3995.93363 -4000.33152 -3996.50940 -4005.15012 -4019.63570 -4032.54318 -4046.66972 -4064.28411 -4089.32928 -4117.47730 -4129.81526 -4150.94962 -4172.91787 -4199.91453 -4197.75393 -4204.76631 -4205.08697 -4204.44691 -4186.30879 -4161.90286 -4149.16738 -4095.93275 -4077.61121 -4054.43067 -3998.19217 -3951.96149 -3936.72671 -3906.02031 -3881.51281 -3859.68156 -3831.05776 -3833.39981 -3833.56716 -3831.06478 -3829.79636
-4452.39955 -4452.06231 -4460.75966 -4489.31632 -4507.79127 -4520.35547 -4527.89158 -4529.27546 -4542.17773 -4536.20644 -4531.47606 -4536.88814 -4531.99718 -4520.03920 -4526.04025 -4513.59947 -4500.71905 -4497.22387 -4491.21603 -4491.50813 -4495.23013 -4481.36218 -4476.48242 -4470.96708 -4472.24231 -4470.20850 -4459.21387 -4456.00533 -4459.55337 -4458.81636 -4478.64937 -4463.12163 -4449.66611 -4480.58740 -4475.00607 -4458.79203 -4468.39282 -4468.01727 -4476.52191 -4471.02619 -4459.55912 -4466.27193 -4452.28142 -4442.78429 -4433.87473 -4428.70182 -4395.14354 -4384.05032 -4341.80553 -4307.80599 -4119.99119 -4043.24377 -3892.12986 -3746.54839 -3705.66050 -3808.60891 -4036.26210 -4146.93824 -4182.64699 -4153.87703 -4108.08852 -3959.66814 -3616.15043 -2736.67637 -1754.76628 -917.25731 -278.86927 -200.09451 -94.40201 -48.75785 -30.79276 -32.26566 -62.61657 -56.94558 -54.33185 -85.40817 -97.23510 -101.03442 -103.97286 -115.87054 -109.00881 -33.86465 129.91912 128.15428 135.21009 -93.02711 -106.73161 -426.83048 -738.34036 -625.51373 -315.35853 -1056.43965 -1440.13735 -2078.61916 -2185.43934 -2760.35633 -3130.61951 -3439.02795 -3842.60418 -3992.48713 -4024.85458 -4040.27678 -4045.18116 -4046.31995 -4029.28978 -4023.48587 -4009.92934 -4005.24980 -3997.92749 -3996.52143 -4002.58274 -4018.87942 -4028.82974 -4042.05771 -4057.53227 -4081.57298 -4104.94336 -4132.81051 -4162.97339 -4191.96112 -4205.27871 -4212.15277 -4215.09785 -4207.92249 -4197.87471 -4188.16269 -4147.78717 -4123.03775 -4083.93632 -4048.82243 -4008.53822 -3966.20168 -3947.95698 -3910.50382 -3888.02696 -3871.25371 -3851.99745 -3841.57076 -3836.16286 -3835.44321 -3828.44890 -3846.95331 -3843.00359
-4481.93072 -4479.53048 -4494.27541 -4506.59084 -4517.42972 -4530.29548 -4513.37204 -4519.21781 -4509.88091 -4510.30140 -4512.31474 -4508.13003 -4490.88304 -4492.77578 -4489.50167 -4464.18250 -4467.11388 -4465.12296 -4446.69735 -4442.11271 -4440.28552 -4440.36527 -4433.06785 -4399.36228 -4422.26908 -4405.40086 -4427.69593 -4399.59631 -4402.61584 -4385.59164 -4393.12151 -4394.81924 -4405.60665 -4399.19699 -4410.76173 -4437.50244 -4426.75944 -4446.82617 -4427.26881 -4437.93301 -4456.59373 -4427.20401 -4413.08287 -4405.92305 -4388.68911 -4387.01420 -4374.20007 -4370.50291 -4240.32859 -3975.44069 -3669.31999 -3406.49156 -3237.60471 -3233.35666 -2981.65089 -3403.45529 -3718.31799 -4027.96267 -4120.02218 -4051.17726 -3924.63396 -3679.25198 -3512.09876 -2682.44891 -1927.80514 -735.18930 -326.30761 -240.05831 -158.10750 -98.14648 -77.47271 -134.38015 -114.82763 -70.85117 -57.29003 -55.15365 -19.66334 -21.55625 -42.30867 14.14675 27.46973 182.51534 283.99809 330.37287 294.60493 -621.15067 -1326.82043 -1616.33832 -1723.11125 -2053.63668 -1925.11674 -2472.25923 -2374.24022 -2844.70460 -3101.32156 -3557.17540 -3732.62077 -3955.47196 -4051.07545 -4048.34408 -4063.49111 -4073.90240 -4058.40147 -4057.38128 -4050.56760 -4023.29858 -4015.35540 -4015.00170 -4011.71231 -4005.15110 -4018.77466 -4026.15427 -4039.15550 -4060.62140 -4083.39677 -4108.69594 -4134.82618 -4157.36672 -4187.53377 -4200.88872 -4214.55793 -4218.29672 -4205.61831 -4195.59690 -4178.47531 -4141.51419 -4127.47893 -4074.03278 -4038.77384 -4013.56097 -3961.09939 -3957.05521 -3903.45891 -3878.20704 -3867.82714 -3851.07794 -3848.12257 -3842.44047 -3838.98593 -3841.08045 -3856.93840 -3855.65273 -3856.21547
-4494.08894 -4498.52657 -4501.45662 -4505.43153 -4499.78835 -4506.36059 -4497.68933 -4489.30320 -4475.18401 -4453.33161 -4443.18466 -4439.40748 -4414.03432 -4431.70043 -4420.59178 -4406.98474 -4399.26676 -4380.17384 -4381.30079 -4358.00054 -4366.49071 -4381.41229 -4354.85568 -4351.54326 -4357.59420 -4335.06941 -4317.70853 -4336.05506 -4304.18363 -4306.08322 -4310.09426 -4344.92100 -4334.28046 -4329.83806 -4341.61413 -4343.53813 -4361.34199 -4338.82298 -4349.71344 -4341.67239 -4332.68358 -4367.56983 -4355.82951 -4336.29871 -4334.63423 -4321.51069 -4328.78207 -4299.28811 -4087.69757 -3560.37449 -2968.33926 -2353.84315 -1745.65883 -1827.06435 -1814.83383 -2600.19131 -3221.48514 -3882.64400 -3853.24369 -3598.53061 -3380.89630 -3144.93801 -3140.03735 -2354.82289 -1608.28541 -883.66866 -347.67693 -226.57535 -136.92692 -183.55965 -271.27136 -412.89511 -275.11763 -119.48462 91.98508 104.86894 154.40754 235.11087 205.42059 236.75065 430.82180 416.92861 250.38504 57.44486 -449.79382 -1640.53653 -2403.88801 -2902.81597 -3139.68392 -3337.97507 -3023.19286 -3070.52386 -3137.73744 -3218.95362 -3498.33407 -3796.33989 -3953.32140 -4024.83656 -4079.58355 -4092.95667 -4099.45457 -4089.93143 -4084.74047 -4068.64442 -4052.84024 -4040.16492 -4030.78600 -4019.62812 -4017.01188 -4019.51525 -4023.60420 -4034.16997 -4073.42595 -4072.13978 -4104.33330 -4136.62663 -4164.13200 -4181.77355 -4196.89848 -4204.39637 -4218.05640 -4213.88242 -4215.18620 -4176.31530 -4139.97634 -4113.56275 -4071.34232 -4028.68235 -3988.36109 -3947.64548 -3937.09340 -3895.88014 -3883.54125 -3859.91802 -3850.99117 -3848.15948 -3850.60511 -3848.35305 -3850.01588 -3860.41256 -3871.63887 -3881.68550 -3879.98139
-4495.35783 -4497.05754 -4487.83113 -4478.90031 -4467.05573 -4462.65138 -4446.07756 -4430.55499 -4411.80363 -4405.86498 -4375.32253 -4346.97438 -4348.62915 -4319.69416 -4316.63247 -4307.27422 -4306.60177 -4293.70016 -4286.64467 -4292.46521 -4275.69280 -4293.38909 -4278.19350 -4267.92215 -4243.18621 -4220.44555 -4219.00342 -4230.65835 -4229.70351 -4202.82554 -4207.97774 -4198.35459 -4241.67588 -4230.08616 -4262.66723 -4247.95720 -4280.23998 -4255.47464 -4253.66165 -4297.37086 -4303.99369 -4292.61768 -4266.72091 -4282.57461 -4250.91105 -4242.18708 -4233.03985 -4148.32529 -3870.14226 -3079.41209 -2139.94924 -1490.18947 -1015.97413 -973.94126 -1111.18368 -1986.81307 -2282.42925 -3269.07357 -3287.57456 -2647.53407 -2280.16955 -1840.95211 -1641.27501 -1385.92152 -1204.38321 -447.95104 -278.69664 -113.26880 -39.61796 -264.92745 -478.56372 -884.81103 -830.53839 -445.29264 76.18478 204.62550 273.90084 459.26261 234.57673 11.16012 153.30928 -3.35948 -182.11527 -235.77327 -1671.45627 -2413.03001 -3125.84452 -3515.83005 -3571.83381 -3488.82257 -3439.56827 -3440.90402 -3468.16596 -3496.11711 -3863.45920 -4000.23105 -4063.67009 -4095.21518 -4112.51916 -4117.99416 -4114.56417 -4117.26267 -4101.79121 -4086.07702 -4064.78789 -4048.23991 -4045.00628 -4037.04461 -4028.48017 -4038.89312 -4042.92583 -4057.44850 -4086.77381 -4112.77062 -4134.87029 -4144.54156 -4181.08459 -4201.46310 -4228.01508 -4228.71040 -4219.48872 -4214.77024 -4186.61039 -4144.79580 -4125.83835 -4084.25745 -4037.99893 -3980.97302 -3960.05948 -3905.92528 -3890.46614 -3873.57161 -3851.90770 -3847.66036 -3840.48228 -3853.09035 -3854.57660 -3854.97390 -3873.88246 -3879.32086 -3892.13774 -3901.66899 -3892.78920
-4472.41310 -4475.37527 -4460.41280 -4453.19384 -4422.26896 -4388.27898 -4366.42659 -4331.97999 -4332.18652 -4290.18262 -4317.30003 -4282.37883 -4247.10312 -4249.64549 -4213.83118 -4221.14366 -4211.78981 -4199.72186 -4204.09052 -4178.45596 -4178.43489 -4180.09874 -4177.40875 -4159.57604 -4164.08319 -4146.99469 -4141.82381 -4141.19930 -4162.93967 -4145.28303 -4148.37513 -4157.22550 -4162.98801 -4170.49182 -4175.66403 -4174.62897 -4186.94464 -4197.15978 -4212.73125 -4209.46136 -4180.52501 -4210.89907 -4186.13791 -4207.19231 -4195.66292 -4165.17963 -4153.51542 -3938.23618 -3303.92805 -2528.36776 -1474.56989 -920.30151 -507.79426 -458.66709 -699.56435 -1158.16957 -2088.21548 -2067.57037 -2178.87246 -1669.74738 -1247.14384 -940.31636 -960.54041 -727.01276 -457.62900 -308.61159 -122.18357 25.62764 -1.69323 -438.86175 -980.55859 -1550.27925 -1995.65003 -1426.03703 -727.67414 -559.86747 -473.82235 -257.79764 -1016.82116 -701.74793 -951.30900 -1045.30736 -1242.15400 -1648.59624 -2257.39643 -2930.10513 -3458.98134 -3605.55481 -3549.26383 -3506.67887 -3603.16819 -3644.81103 -3748.43348 -3960.65698 -4028.53987 -4058.47341 -4091.12462 -4108.82050 -4134.19072 -4134.30126 -4134.45650 -4121.85708 -4111.77953 -4093.79404 -4079.15962 -4065.28005 -4056.16596 -4045.44621 -4048.27824 -4061.52872 -4066.30664 -4083.22779 -4098.26935 -4104.54787 -4154.76888 -4179.30018 -4196.78621 -4222.93972 -4240.66986 -4228.95516 -4216.96095 -4188.74054 -4158.34991 -4118.86931 -4072.91874 -4024.33525 -3985.15209 -3931.88540 -3911.92773 -3885.34499 -3861.10046 -3848.21047 -3842.96600 -3848.10496 -3851.27403 -3855.29149 -3868.44084 -3877.05585 -3881.30969 -3900.89256 -3910.35054 -3929.89792 -3931.05133
-4430.63037 -4424.76704 -4404.61270 -4374.45635 -4341.16839 -4325.30324 -4298.68489 -4257.65924 -4231.65482 -4208.07011 -4189.46309 -4168.43742 -4185.18689 -4150.23192 -4132.66227 -4152.48596 -4136.62263 -4120.69928 -4118.10128 -4116.26648 -4117.61817 -4096.35495 -4079.33100 -4075.38373 -4087.42199 -4078.89121 -4075.72581 -4062.21302 -4056.29726 -4062.93327 -4057.45615 -4065.21385 -4082.22586 -4103.70055 -4111.16768 -4124.74503 -4123.88194 -4133.08117 -4137.41198 -4154.59085 -4142.97886 -4138.93720 -4133.64893 -4105.75206 -4032.17630 -3947.94761 -3785.70776 -3464.06242 -2792.38304 -1769.99704 -1154.52854 -453.12393 -349.08435 -326.22176 -419.55303 -720.96365 -947.64712 -1165.62648 -1140.05544 -977.55153 -656.79196 -513.44465 -337.43760 -208.82240 -163.26099 -70.08707 -9.59794 44.73372 -112.80404 -579.40945 -2144.22169 -3058.86549 -3035.38509 -2508.49653 -2433.36067 -2176.21447 -2614.29669 -2349.59114 -2211.12206 -2172.38144 -2647.06683 -1857.49083 -2365.80692 -2575.85137 -2860.95421 -3348.57470 -3517.73499 -3598.74454 -3589.31598 -3667.93683 -3704.21750 -3807.58406 -4032.16291 -4058.70719 -4071.58104 -4103.07953 -4115.75083 -4125.20178 -4139.87447 -4129.91232 -4137.97848 -4119.28812 -4110.98649 -4092.83759 -4086.52506 -4080.94187 -4062.03884 -4065.05389 -4068.17064 -4062.62792 -4086.29354 -4106.75624 -4134.05205 -4168.74738 -4189.75435 -4204.54382 -4216.95941 -4226.64508 -4228.61156 -4216.92851 -4200.24811 -4164.39455 -4120.22271 -4089.50052 -4031.07415 -3976.87745 -3954.15954 -3910.09538 -3872.19913 -3850.90789 -3844.35094 -3838.29609 -3834.19285 -3855.27919 -3855.65862 -3873.94390 -3884.86947 -3895.59619 -3915.14676 -3928.43232 -3939.79868 -3949.59418 -3950.48078
-4374.07646 -4374.29011 -4340.25147 -4321.79396 -4288.36674 -4257.00857 -4206.07357 -4179.12553 -4169.98461 -4145.01919 -4123.21865 -4105.13997 -4077.84268 -4081.87720 -4074.67581 -4059.56936 -4049.74586 -4056.23533 -4040.60807 -4048.64377 -4031.14076 -4040.08404 -4026.26644 -4027.02294 -4017.84008 -4008.12610 -4011.75107 -4011.80074 -4004.29176 -4008.26870 -4024.99902 -4042.92045 -4047.34258 -4054.42174 -4051.68936 -4079.30530 -4085.26838 -4076.83036 -4096.90524 -4112.41155 -4118.39125 -4104.07172 -4079.37878 -3996.22966 -3794.55500 -3468.89445 -3237.64002 -2402.80364 -1959.31863 -1012.52164 -553.32744 -315.10288 -199.75723 -197.55711 -252.46189 -353.14910 -486.36754 -475.47657 -461.88240 -390.77247 -277.58719 -135.72909 -92.63562 29.34051 112.80036 133.95098 90.66280 54.66465 -350.48393 -1266.26900 -2475.25230 -3432.22676 -3748.32766 -3593.21512 -3429.13388 -3463.61121 -3453.62941 -3466.97438 -3348.13040 -3337.00734 -3330.56842 -3319.42511 -3159.68745 -3127.45890 -3223.04658 -3444.13201 -3639.11172 -3726.11868 -3887.86511 -3953.27321 -4056.97531 -4058.09188 -4064.31610 -4087.94541 -4100.78054 -4108.12303 -4116.26528 -4124.91673 -4131.85246 -4128.23644 -4129.62439 -4118.35016 -4110.53504 -4102.92425 -4092.53798 -4088.60610 -4080.25490 -4087.29644 -4088.08946 -4102.42967 -4119.09129 -4134.48034 -4160.66488 -4184.20030 -4201.57348 -4223.65855 -4237.74394 -4234.76918 -4231.73724 -4206.83256 -4179.89627 -4141.30405 -4077.86691 -4040.33382 -3997.02475 -3942.87633 -3910.74572 -3878.73027 -3841.83854 -3843.42814 -3829.49200 -3832.23233 -3834.17542 -3850.44945 -3859.75661 -3885.77932 -3895.49798 -3916.33281 -3928.71986 -3942.67267 -3961.78417 -3968.63089 -3963.83449
-4306.99990 -4307.25076 -4276.14317 -4260.37075 -4212.11872 -4169.50193 -4160.51348 -4123.41951 -4106.32569 -4078.08960 -4049.37362 -4041.79323 -4026.14106 -4038.74911 -4017.90320 -4010.63492 -4009.10697 -4000.99300 -3993.77860 -3995.45375 -4005.48448 -3993.48961 -3982.51557 -3987.07679 -3988.29737 -3981.18362 -3978.32549 -3979.56450 -3982.10782 -3970.58138 -3980.03657 -3987.61080 -4017.16784 -4025.97191 -4040.90925 -4051.22024 -4054.04945 -4063.36083 -4074.36946 -4077.18480 -4085.68115 -4061.52707 -3987.25196 -3833.63778 -2977.88217 -2613.33600 -2016.17361 -1401.87467 -837.36952 -490.96543 -237.32319 -182.11843 -128.62743 -126.96325 -163.99788 -210.24068 -278.49957 -286.63425 -233.26577 -194.31131 -110.05562 -28.88563 56.34946 152.33326 195.12765 185.76597 147.97715 -37.27342 -658.84130 -2075.90989 -2964.00894 -3747.24914 -3974.89395 -3963.62571 -3821.38742 -3843.31733 -3815.45127 -3768.64895 -3712.05543 -3647.11189 -3567.07446 -3496.10961 -3485.73991 -3437.39154 -3558.04381 -3717.81604 -3823.03931 -3975.10540 -4016.50717 -4043.41787 -4062.54362 -4075.20735 -4095.13891 -4097.02548 -4103.30710 -4105.55030 -4105.00968 -4102.38546 -4112.41492 -4109.47477 -4116.96728 -4104.97150 -4099.62132 -4093.92863 -4091.97043 -4089.90370 -4089.06375 -4101.55172 -4118.67137 -4132.10594 -4145.03763 -4165.48493 -4177.77467 -4204.72649 -4224.97286 -4225.77230 -4234.38115 -4230.49911 -4217.66994 -4181.20798 -4151.24385 -4081.01222 -4057.16172 -4008.42495 -3945.07215 -3894.55788 -3885.70391 -3846.45313 -3836.94509 -3827.69151 -3834.12519 -3829.90499 -3852.20596 -3871.94750 -3884.25593 -3900.87923 -3917.06213 -3937.89607 -3949.19069 -3959.21079 -3978.15877 -3981.87255 -3984.15619
-4229.08422 -4242.26797 -4207.02547 -4175.64600 -4142.55726 -4128.74130 -4097.36215 -4066.34605 -4036.87014 -4029.69320 -4020.23825 -4006.47619 -3996.84591 -3990.97232 -3977.88390 -3979.38164 -3974.06407 -3972.49416 -3970.00787 -3966.70081 -3969.50587 -3975.30544 -3972.65163 -3970.04149 -3961.27630 -3963.98426 -3952.43107 -3957.18299 -3955.38587 -3963.88149 -3968.89387 -3981.65328 -3998.85211 -4012.84733 -4021.95815 -4043.12234 -4055.97423 -4054.34721 -4071.69444 -4073.66325 -4063.52149 -4002.06784 -3782.62058 -3456.06020 -2199.21923 -1807.31458 -1448.87714 -735.37821 -375.44897 -255.87035 -104.51666 -54.71520 -20.19349 -91.69136 -127.15768 -348.66664 -344.75831 -213.72296 -90.29515 -98.49639 -80.18213 -38.54065 -20.79677 86.80059 150.62790 221.58220 234.11532 73.99438 -637.47420 -2111.24094 -3176.71411 -3678.86099 -3872.13431 -3884.26667 -3811.96999 -3795.72434 -3743.08701 -3676.47186 -3645.49312 -3614.31049 -3594.85633 -3586.61172 -3643.78339 -3792.58633 -3857.55196 -3933.82963 -4032.93274 -4072.25931 -4078.34156 -4079.67603 -4093.05612 -4091.40906 -4099.14569 -4089.72406 -4090.58098 -4088.22123 -4096.94379 -4095.86023 -4090.45700 -4087.07282 -4084.65543 -4087.32351 -4087.50506 -4081.17311 -4087.13119 -4096.45710 -4104.28956 -4117.87186 -4133.05112 -4154.83163 -4165.27299 -4194.79001 -4201.35880 -4225.87866 -4238.34142 -4233.89064 -4225.42553 -4202.25030 -4193.15948 -4137.70718 -4092.90823 -4055.28094 -3999.41983 -3951.23579 -3914.01120 -3880.50971 -3844.46143 -3822.34422 -3820.66465 -3820.42815 -3835.39232 -3848.64742 -3860.63777 -3877.84375 -3894.53857 -3920.55574 -3940.21171 -3955.82436 -3973.81041 -3986.46210 -3995.98732 -3996.82054 -4001.88362
-4183.51940 -4182.17292 -4147.37936 -4130.68456 -4106.34489 -4079.68825 -4039.62333 -4026.30163 -4015.47938 -4008.86999 -3992.38443 -3988.12534 -3978.62291 -3974.20697 -3968.47784 -3966.25411 -3966.89487 -3964.07792 -3962.66751 -3965.28797 -3959.65266 -3968.65529 -3971.00830 -3962.15350 -3965.22062 -3963.26692 -3958.42460 -3956.77059 -3960.40465 -3957.31568 -3974.55066 -3978.17297 -3992.07331 -4005.66941 -4030.67122 -4048.33134 -4056.89656 -4065.40325 -4074.76721 -4083.01363 -4056.46596 -4002.43151 -3500.77778 -2898.79089 -1978.17102 -940.68022 -436.09103 -250.84076 -134.29439 -75.95213 10.80592 11.60083 -89.93554 -268.97009 -711.80994 -794.19374 -584.47422 -257.39233 -71.91168 -130.25835 -183.37259 -351.38349 -323.55221 -369.59641 -103.97982 8.79564 116.56119 -154.43209 -930.50356 -2234.95989 -3217.96330 -3549.78032 -3637.54921 -3599.81831 -3573.62864 -3534.36774 -3559.16515 -3543.76731 -3630.09498 -3732.01259 -3788.46811 -3806.78501 -3932.66273 -3927.96036 -3988.59977 -4030.37650 -4062.07650 -4061.09633 -4076.39846 -4089.27325 -4079.14672 -4077.96118 -4080.87920 -4074.83485 -4069.80471 -4064.56592 -4064.38173 -4066.33730 -4053.02941 -4048.48101 -4056.84013 -4065.54141 -4073.26345 -4069.08999 -4090.21398 -4090.19688 -4118.13035 -4126.69728 -4156.89343 -4168.75656 -4198.54566 -4214.52916 -4232.98518 -4241.03273 -4234.14665 -4231.91883 -4212.33946 -4176.09679 -4158.71874 -4094.54835 -4065.08585 -4016.09171 -3962.27884 -3931.00423 -3885.52575 -3848.68850 -3833.78526 -3813.84252 -3827.27267 -3826.05133 -3836.02967 -3853.42241 -3873.82329 -3910.56447 -3925.87311 -3932.72844 -3958.67155 -3972.73165 -3978.96969 -3999.94985 -4009.48970 -4008.09556 -4008.23407
-4135.00555 -4129.15919 -4107.58784 -4082.26132 -4066.34624 -4039.89495 -4019.95703 -4011.17091 -3999.03852 -3993.56579 -3987.87200 -3978.49480 -3976.82927 -3972.89197 -3972.29207 -3971.01621 -3971.82391 -3968.79500 -3975.81903 -3972.57449 -3971.49922 -3975.93677 -3974.48187 -3980.12105 -3972.98156 -3967.44138 -3972.01650 -3969.55826 -3968.23580 -3979.71417 -3982.22361 -3992.39444 -4003.27036 -4025.10030 -4031.50071 -4052.07555 -4068.30079 -4083.65918 -4095.52786 -4083.09631 -4055.74951 -3896.78839 -3276.17039 -2541.97902 -1351.08618 -509.58743 -305.61514 -162.78011 -172.97541 -108.69342 -23.68804 32.05829 -347.59647 -856.67798 -1597.12967 -1732.94622 -1482.72835 -579.02025 -336.96628 -486.44615 -813.33375 -881.86995 -1326.29366 -1265.49866 -1021.44901 -907.22690 -732.59605 -1299.95604 -1747.96785 -2457.26006 -3168.90443 -3407.95956 -3479.71335 -3492.87772 -3531.32242 -3541.61207 -3601.84229 -3754.10275 -3893.20557 -3925.86535 -3965.95104 -4037.65485 -4038.31068 -4052.10842 -4059.10356 -4067.62767 -4067.75117 -4065.99083 -4067.38087 -4065.01499 -4060.27479 -4056.69854 -4044.54204 -4044.02255 -4044.32134 -4038.90961 -4038.33968 -4035.63024 -4033.33326 -4028.70039 -4044.94622 -4038.89426 -4052.86944 -4070.46101 -4068.72633 -4108.36872 -4125.73553 -4156.49111 -4173.86570 -4194.04523 -4220.46079 -4229.91844 -4239.29583 -4236.75845 -4222.19054 -4205.27648 -4170.88527 -4150.93999 -4108.80103 -4070.58619 -4021.77933 -3957.50261 -3925.35205 -3873.79726 -3859.46322 -3835.06166 -3826.99435 -3814.62783 -3830.70317 -3841.43206 -3850.93691 -3877.87934 -3896.31683 -3914.19832 -3932.85954 -3953.94177 -3973.71162 -3984.11940 -3988.87967 -4006.14742 -4023.52103 -4025.46320 -4025.80223
-4090.57084 -4090.95534 -4068.56969 -4051.56358 -4028.95270 -4024.44606 -4009.53316 -3998.61718 -3992.84550 -3998.62831 -3994.75194 -3989.36111 -3993.49270 -3989.49460 -3980.90466 -3991.70234 -3980.03383 -3984.12527 -3985.66440 -3993.98737 -3991.26665 -3990.07444 -3990.73466 -3992.67300 -3983.93282 -3995.20210 -3991.18525 -3990.92160 -3994.93549 -3998.20135 -3991.33065 -4010.17474 -4015.69068 -4033.92076 -4051.87901 -4063.63939 -4084.37112 -4090.76768 -4092.38905 -4090.16130 -4060.87890 -3814.56763 -3154.69544 -2076.10753 -799.67326 -328.72350 -165.30762 -446.47788 -614.61728 -402.50418 -151.29952 -342.64877 -990.81686 -1859.47006 -2614.44065 -2628.32538 -2052.68282 -1215.21496 -1080.31260 -1420.09515 -1686.59869 -2548.45557 -2321.51204 -2615.15336 -2421.00871 -1589.09052 -1884.87868 -2657.88469 -2992.44949 -3226.62417 -3433.96915 -3519.81030 -3496.45831 -3567.64204 -3638.64571 -3691.42563 -3849.55276 -3920.21016 -3963.64620 -4011.21640 -4042.82870 -4046.06850 -4052.53049 -4057.46241 -4048.10046 -4046.73756 -4049.88154 -4045.97983 -4043.41403 -4041.33130 -4034.40282 -4031.44550 -4026.58537 -4014.43814 -4008.37396 -4010.04994 -4012.17848 -3997.67110 -4007.81346 -4013.52397 -4024.70574 -4037.32738 -4052.14453 -4067.04378 -4090.16545 -4114.64626 -4133.51721 -4157.01981 -4195.45497 -4214.34100 -4227.17312 -4241.87904 -4236.66926 -4227.90008 -4204.30353 -4173.51727 -4119.09326 -4104.21695 -4045.36387 -3998.72015 -3956.69400 -3938.22191 -3878.22665 -3846.29460 -3828.29915 -3821.87511 -3814.24236 -3822.97871 -3840.12466 -3853.28304 -3873.86598 -3879.49551 -3910.15955 -3934.34779 -3954.16359 -3962.45568 -3986.17756 -3999.81167 -4011.73252 -4016.13899 -4028.59526 -4029.34361 -4037.17352
-4060.77407 -4055.41822 -4043.46835 -4028.48619 -4016.51076 -4011.01887 -4013.82656 -4011.42402 -4009.41936 -4003.16779 -4010.63829 -4009.70015 -4001.57385 -3996.61668 -3995.58338 -3997.33289 -4007.76909 -3999.18078 -4005.64641 -4003.28593 -4010.96258 -4015.91386 -4008.66449 -4017.01047 -4012.62930 -4011.89657 -4013.32194 -4005.38421 -3998.49680 -4010.69811 -4022.80540 -4026.00842 -4043.81602 -4044.73725 -4054.87947 -4082.33078 -4092.71772 -4093.78653 -4101.79057 -4100.91152 -4028.41601 -3519.73566 -3180.03518 -1467.71212 -663.74683 -499.26860 -843.50475 -1200.20977 -1604.82338 -1455.88351 -780.12882 -569.39464 -1204.00664 -2046.94439 -3144.18987 -3232.32602 -2873.10612 -2362.20349 -2344.95368 -2783.28946 -3094.73089 -3356.95637 -3574.27912 -3656.93569 -3501.42250 -3201.08502 -3465.09692 -3384.91111 -3562.25106 -3547.28051 -3685.28849 -3638.91718 -3683.44789 -3791.07816 -3827.76583 -3905.27155 -3995.12002 -4008.97198 -4010.87613 -4033.68002 -4026.33235 -4031.72291 -4033.22680 -4017.20588 -4013.41564 -4023.72897 -4019.41393 -4015.69587 -3998.99068 -3994.22261 -3996.09606 -3990.15400 -3997.62567 -3990.58543 -3991.90196 -3992.80534 -3990.16802 -3990.22626 -4000.33937 -4014.92916 -4013.72253 -4042.81233 -4062.05003 -4072.49604 -4115.56835 -4124.10826 -4155.91533 -4182.14963 -4212.15283 -4231.70990 -4236.52942 -4238.97788 -4222.25786 -4192.19022 -4166.84921 -4121.07609 -4077.51995 -4045.98590 -4002.53851 -3954.02887 -3910.24532 -3873.01838 -3855.44108 -3829.46587 -3818.26591 -3810.09903 -3814.60530 -3823.40664 -3840.43474 -3860.29550 -3883.15362 -3914.44423 -3922.08965 -3943.66266 -3961.34627 -3981.25124 -3999.92536 -4013.84007 -4013.19446 -4031.68932 -4029.70835 -4038.42770 -4036.32946
-4043.48611 -4033.03270 -4033.57145 -4029.47623 -4021.57397 -4015.27389 -4022.15122 -4014.58489 -4018.64278 -4022.48666 -4023.53270 -4025.93272 -4027.90306 -4014.14231 -4023.60129 -4025.40961 -4027.87567 -4028.49264 -4022.20139 -4028.36247 -4028.12597 -4030.30618 -4036.72594 -4034.54115 -4034.78614 -4035.65091 -4032.50406 -4019.10578 -4031.40813 -4027.60999 -4033.58266 -4047.49703 -4047.69705 -4053.70714 -4072.77187 -4092.59584 -4094.05734 -4102.98483 -4096.53758 -4097.19436 -3956.36630 -3393.24567 -2798.36252 -1565.24435 -1081.12387 -1363.29042 -1847.42556 -2294.42204 -2513.58317 -2556.92905 -1595.14540 -959.15876 -1378.87249 -2129.59600 -3331.91934 -3641.05740 -3582.03051 -3455.28308 -3444.85000 -3625.08746 -3781.96524 -3981.59928 -4029.42215 -3991.02082 -4012.19755 -3917.86177 -3960.00649 -3969.43801 -3931.46365 -3891.41006 -3844.85798 -3926.74154 -3919.17082 -3898.00901 -3932.80483 -3982.04804 -3987.62945 -4007.49054 -4009.16090 -3998.75447 -4004.89829 -3989.99265 -3998.77380 -3982.24799 -3989.02280 -3977.96733 -3975.38692 -3970.05037 -3970.17933 -3976.44562 -3964.43494 -3971.78887 -3969.34048 -3967.09389 -3972.06231 -3967.82672 -3984.57043 -4000.32839 -4001.45213 -4011.84410 -4039.67771 -4053.07222 -4074.09741 -4093.85544 -4116.24878 -4142.64807 -4168.81660 -4188.16892 -4227.10452 -4224.49888 -4225.07995 -4228.02486 -4201.10200 -4163.57133 -4128.23993 -4088.04597 -4033.65464 -3978.90956 -3921.54954 -3877.86654 -3854.39987 -3835.71517 -3833.98923 -3816.07986 -3801.25492 -3808.14533 -3821.39543 -3846.16322 -3862.22288 -3873.81390 -3907.58560 -3922.37073 -3948.32999 -3958.37608 -3975.55557 -3993.81343 -4006.95257 -4018.52158 -4029.52707 -4040.03124 -4038.58514 -4048.93752 -4045.18506
-4025.70700 -4036.93827 -4029.43967 -4021.46839 -4028.73076 -4020.73617 -4029.82396 -4030.79399 -4031.39749 -4041.19617 -4032.98888 -4031.49525 -4040.41390 -4039.08903 -4031.08991 -4034.80917 -4039.31588 -4047.14049 -4042.91964 -4046.38366 -4048.92010 -4047.78348 -4046.70011 -4046.61420 -4046.90746 -4044.11613 -4054.38462 -4038.89935 -4039.58712 -4040.45937 -4035.38319 -4050.47933 -4062.23645 -4073.81238 -4073.05226 -4082.70452 -4096.27027 -4104.85170 -4107.27500 -4092.09929 -3925.80306 -3629.24744 -2708.54013 -1990.13865 -1717.06507 -2445.96467 -2858.13823 -3212.25605 -3472.19522 -3137.36026 -2985.58139 -2097.29783 -1824.66777 -2462.84444 -3088.86853 -3631.15725 -3787.63447 -3807.28896 -3855.98375 -3992.99541 -4108.93890 -4154.10657 -4151.07245 -4137.07517 -4093.52736 -4072.23526 -4019.21778 -3984.94729 -3964.98256 -3935.53993 -3935.25040 -3930.77096 -3929.26305 -3945.20048 -3953.72051 -3957.39967 -3966.23697 -3972.02902 -3964.85847 -3972.38513 -3957.67687 -3959.51923 -3944.58077 -3931.03773 -3945.50553 -3941.00547 -3932.86416 -3950.29742 -3930.16171 -3942.30243 -3951.58875 -3948.87645 -3954.48795 -3960.89374 -3965.95241 -3968.17932 -3986.86255 -3996.98448 -4003.91576 -4036.23834 -4049.05807 -4063.73134 -4077.02615 -4115.22641 -4125.09943 -4162.55105 -4167.17832 -4203.87019 -4209.71607 -4218.57801 -4208.88788 -4196.69283 -4167.82124 -4125.95102 -4073.40042 -4020.70294 -3978.60046 -3914.39937 -3881.02359 -3844.68305 -3820.52585 -3802.60394 -3791.67999 -3793.23616 -3810.59114 -3808.27061 -3827.37470 -3845.29283 -3873.78478 -3900.45717 -3919.63414 -3937.56438 -3956.11081 -3992.01163 -3992.82345 -4009.78562 -4024.58506 -4023.88383 -4035.27238 -4033.52085 -4045.26828 -4048.85216 -4047.61707
-4032.93240 -4038.25000 -4029.88557 -4028.77696 -4036.84945 -4037.98161 -4035.03611 -4042.42852 -4043.52340 -4043.77892 -4053.20622 -4056.01366 -4051.07414 -4050.91745 -4051.79688 -4049.53086 -4042.88381 -4049.29419 -4048.45248 -4048.23833 -4055.24184 -4056.87701 -4044.69516 -4059.88396 -4064.61240 -4051.24153 -4055.88293 -4051.57404 -4056.83102 -4056.33884 -4054.78389 -4061.67607 -4080.31178 -4081.69331 -4076.22348 -4083.79840 -4103.42113 -4102.80887 -4103.89917 -4089.99844 -4008.96596 -3700.87322 -3115.22801 -2618.17549 -2819.89914 -3042.32880 -3597.71264 -3800.18939 -3778.02884 -3729.37681 -3210.31706 -2729.34329 -2349.12272 -2652.55844 -2882.50613 -3558.45712 -3833.31812 -3962.31905 -4043.24951 -4115.17985 -4131.07194 -4155.14015 -4149.20691 -4138.21286 -4078.99412 -4032.87352 -4002.41129 -3955.47085 -3924.22017 -3911.33363 -3896.16432 -3906.49012 -3912.48571 -3919.98493 -3914.97636 -3925.14797 -3925.50964 -3912.07720 -3914.05230 -3909.80937 -3917.67369 -3908.53490 -3917.92601 -3904.10174 -3913.07956 -3907.90606 -3914.34500 -3909.84962 -3918.04023 -3927.59796 -3936.99367 -3942.41797 -3944.03363 -3961.30877 -3974.71885 -3982.15327 -3997.37420 -4022.61794 -4035.91175 -4057.66744 -4089.42269 -4096.82740 -4114.28114 -4131.11469 -4147.76567 -4154.05263 -4180.36701 -4190.82050 -4195.34115 -4207.06644 -4191.16315 -4153.20751 -4124.03836 -4075.64633 -4009.16944 -3977.44142 -3918.56164 -3876.14098 -3826.91807 -3810.01434 -3796.52805 -3775.74655 -3783.55849 -3798.23865 -3807.62627 -3822.63839 -3845.93614 -3873.61457 -3896.02902 -3912.27832 -3930.08378 -3962.08619 -3977.23842 -3983.32385 -3996.16740 -4011.67320 -4028.56855 -4035.32094 -4041.51617 -4041.00602 -4051.94505 -4048.24077 -4045.59165
-4029.19257 -4024.26380 -4039.39621 -4040.55810 -4047.79256 -4046.93326 -4065.11518 -4066.40941 -4059.64978 -4066.46850 -4061.38535 -4055.68241 -4062.51107 -4059.10699 -4055.86227 -4057.28961 -4048.50336 -4050.20812 -4054.55675 -4053.03471 -4053.50218 -4051.69801 -4047.11229 -4063.45085 -4062.40775 -4062.51406 -4057.42217 -4051.02401 -4061.63948 -4061.54909 -4058.80554 -4063.73767 -4071.71537 -4078.41720 -4088.13417 -4096.69816 -4106.52761 -4110.23497 -4107.83208 -4100.64039 -4081.76435 -3958.58193 -3658.53128 -3417.88866 -3470.54167 -3759.23581 -3889.92611 -3925.59127 -3918.87877 -3889.22298 -3700.96807 -3560.71193 -3195.20905 -3131.96023 -3336.45453 -3577.81881 -3864.29118 -3998.63678 -4041.46698 -4097.82857 -4112.66901 -4119.94511 -4121.07170 -4081.28119 -4066.28217 -3996.66726 -3970.35581 -3910.77216 -3880.53114 -3868.49185 -3874.62844 -3862.25649 -3858.51493 -3870.71945 -3881.47577 -3872.63800 -3877.93556 -3876.34799 -3891.77553 -3878.64030 -3878.38749 -3888.78428 -3881.61884 -3880.42125 -3889.19985 -3891.82913 -3893.65821 -3904.69216 -3917.48555 -3914.15278 -3926.67047 -3936.71430 -3945.63298 -3966.95651 -3987.44692 -4000.80860 -4020.76740 -4040.66347 -4060.26159 -4081.37541 -4091.44199 -4116.18671 -4125.81863 -4144.53815 -4156.95739 -4160.35365 -4173.40317 -4188.24911 -4189.92025 -4186.60849 -4157.15494 -4130.66804 -4090.90001 -4038.56051 -3955.93786 -3918.01768 -3870.76989 -3816.54561 -3794.79749 -3776.70690 -3760.53681 -3770.84680 -3772.01559 -3800.45374 -3811.85200 -3824.11105 -3871.01937 -3885.46070 -3909.39163 -3934.38243 -3946.35335 -3977.96025 -3986.68830 -4002.53459 -4010.28604 -4022.21803 -4029.74511 -4041.83827 -4035.70808 -4043.59829 -4052.19047 -4045.94642 -4051.61293
-4038.61777 -4036.77806 -4040.82988 -4046.23281 -4052.38332 -4064.70109 -4058.02141 -4067.07515 -4065.92345 -4061.62431 -4057.40448 -4055.51537 -4059.39622 -4055.29742 -4049.35541 -4045.48304 -4044.05693 -4046.97496 -4044.67284 -4045.96516 -4041.61142 -4054.54598 -4054.32845 -4050.65536 -4053.27152 -4061.15983 -4059.88324 -4053.58803 -4062.06805 -4063.36562 -4060.15514 -4071.89472 -4081.79771 -4085.04673 -4100.95444 -4101.31488 -4106.80137 -4117.76050 -4117.17077 -4110.87392 -4102.59668 -4073.94467 -3933.89097 -3879.03005 -3838.45958 -3933.41628 -3956.93427 -3976.25883 -3987.99678 -3961.62827 -3910.83092 -3757.42913 -3667.13208 -3546.48921 -3574.76254 -3828.91018 -3930.23826 -4004.42067 -4038.62849 -4062.82616 -4083.18108 -4089.71181 -4078.92129 -4053.53516 -4011.06117 -3970.79057 -3918.91981 -3883.91855 -3847.07414 -3840.71961 -3819.33294 -3823.33208 -3834.88266 -3840.57647 -3836.81470 -3853.13909 -3853.24560 -3856.41194 -3865.28831 -3863.54625 -3864.01556 -3871.74390 -3869.50332 -3874.16703 -3878.20263 -3888.61632 -3892.71042 -3897.88865 -3901.94680 -3928.65259 -3927.58862 -3944.83007 -3974.34220 -3979.31359 -3997.43554 -4020.45310 -4047.58134 -4070.24374 -4096.17113 -4109.62141 -4107.01919 -4127.85165 -4143.34655 -4148.33618 -4151.39650 -4163.76373 -4170.93104 -4168.14906 -4175.10109 -4152.08312 -4142.49770 -4093.97197 -4052.38705 -3990.00756 -3925.89770 -3863.81933 -3821.31919 -3806.58287 -3764.31701 -3759.02845 -3760.70513 -3763.83390 -3777.02910 -3796.83851 -3836.72243 -3856.13221 -3881.33232 -3900.41853 -3929.72675 -3949.45398 -3967.36113 -3980.86281 -3994.32408 -4013.02464 -4019.51531 -4029.27786 -4037.36032 -4042.02995 -4050.30627 -4054.04303 -4045.24758 -4053.68151 -4050.45135
-4045.62146 -4042.27195 -4052.19698 -4057.85935 -4059.15306 -4067.40400 -4066.77902 -4066.21400 -4070.64034 -4067.40291 -4066.48788 -4060.47951 -4055.37665 -4049.31029 -4040.69637 -4041.60486 -4037.65991 -4034.11872 -4035.62405 -4038.02169 -4042.31712 -4039.49364 -4045.84624 -4050.71173 -4044.80918 -4048.89513 -4051.77597 -4051.13380 -4050.47472 -4058.14887 -4062.71967 -4068.70090 -4081.76075 -4091.05578 -4099.21420 -4108.30269 -4113.92756 -4117.23536 -4131.25627 -4119.35504 -4112.21561 -4099.89657 -4050.21989 -4020.84820 -4015.66851 -4018.82538 -4000.99006 -4010.36998 -4019.97718 -4034.41956 -4044.29318 -4022.77655 -3918.30921 -3909.42526 -3971.10384 -3935.36346 -3982.36848 -4003.90134 -4023.13585 -4040.22188 -4042.98259 -4049.70436 -4034.90153 -4025.46147 -3976.74304 -3934.32743 -3893.88464 -3852.96082 -3826.58917 -3804.86959 -3802.32631 -3811.22540 -3812.83433 -3822.18780 -3824.21437 -3836.35076 -3847.38697 -3851.38458 -3862.02498 -3861.85066 -3860.10048 -3865.68003 -3879.58383 -3872.97233 -3890.78292 -3885.36833 -3902.61043 -3912.31727 -3922.01781 -3934.45279 -3948.43985 -3966.07477 -3983.76478 -3994.49443 -4014.80153 -4048.28769 -4069.53006 -4097.19565 -4108.51133 -4126.84566 -4133.35079 -4143.72821 -4136.47557 -4141.75221 -4132.85576 -4135.08612 -4142.84273 -4141.80434 -4150.73304 -4138.55386 -4099.69876 -4072.16256 -4009.20814 -3956.84422 -3892.72324 -3847.69127 -3800.05857 -3785.16896 -3761.17054 -3757.62853 -3759.33503 -3782.10279 -3795.72196 -3827.58297 -3844.83378 -3867.99874 -3893.82190 -3909.22770 -3956.80924 -3959.63950 -3980.76693 -3996.57864 -4009.25716 -4017.64484 -4033.28658 -4038.49034 -4044.19189 -4038.85007 -4045.67808 -4060.30714 -4049.07336 -4058.71157 -4054.98044
