-323.85231 -328.89918 -360.67313 -388.26925 -420.04434 -484.51806 -580.16917 -682.75535 -745.21805 -1255.93568 -1668.31599 -1852.85966 -2260.38875 -2695.59215 -2703.86412 -2809.34299 -2546.76440 -1834.22838 -718.48569 -82.36142 154.01894 391.65281 657.28403 703.88942 722.80376 752.77965 777.26580 765.90995 764.58999 774.01636 794.44761 806.02757 852.25804 931.24512 1059.07289 1127.22657 1148.03319 1153.59580 1162.50313 1163.00008 1163.88721 1161.48322 1169.84530 1173.00413 1163.71491 1115.30698 1033.33641 869.73367 770.01463 694.30784 624.66093 605.43668 712.45910 762.08730 884.88871 946.99977 1009.86307 1037.47530 1114.17779 1148.63298 1164.80203 1177.29122 1189.83590 1186.34596 1180.37636 1148.48913 1060.65735 676.69500 293.26838 144.15751 65.32216 54.27722 53.52245 53.51294 51.72824 62.20908 48.40048 53.76584 56.91040 58.41190 58.83626 52.92148 53.45558 52.30956 54.71969 49.43209 51.91646 62.36476 63.88507 54.06460 58.59891 54.82944 60.79426 58.44284 64.33877 67.32156 64.23846 67.33810 84.94494 79.63253 95.36964 93.75017 102.72221 111.36295 106.82593 114.94661 108.35048 111.05732 107.75756 63.06266 21.80736 -9.85787 -60.17436 -87.81659 -128.16841 -155.44123 -360.22351 -842.24682 -1944.31955 -3080.17686 -3790.06859 -3907.11341 -3954.13709 -3960.46330 -3955.39329 -3950.52171 -3954.48908 -3956.39814 -3952.59996 -3950.55609 -3954.17852 -3955.59367 -3948.90176 -3951.38345 -3950.85546 -3947.10574 -3945.13154 -3945.95838 -3950.27964 -3948.17700 -3945.81134 -3947.07406 -3943.50224
-635.49736 -632.53814 -712.86149 -911.89233 -987.28038 -1001.26671 -1190.44063 -1585.71654 -1777.85351 -2108.63512 -2652.67625 -3148.64164 -3238.84950 -3384.09523 -3614.20298 -3607.55779 -3159.22264 -2700.51939 -1582.29184 -639.19710 -101.13047 262.38345 377.39289 468.42041 599.56558 682.48218 747.85611 768.13958 757.82309 773.42224 793.74684 798.30481 875.10996 941.00700 1051.57050 1121.55090 1166.07662 1168.02510 1160.98019 1170.20264 1164.65868 1167.12449 1167.24048 1169.41622 1145.45813 1127.80914 965.65524 865.35364 732.65506 667.35193 537.77990 589.82135 711.18306 801.59379 906.75046 1039.66480 1108.81615 1132.96041 1161.38229 1178.88970 1181.26782 1174.99113 1184.47548 1188.13865 1194.32240 1172.45949 1029.76594 832.66570 345.43157 154.57957 77.68107 59.21553 47.42947 50.78515 50.61156 46.86439 53.03207 54.43853 57.18817 55.33157 56.10468 59.56839 53.05252 49.48481 56.22394 57.56910 57.70213 56.45192 54.25462 56.68889 52.81240 55.39798 66.97781 59.18893 64.47388 72.66090 75.62792 100.97658 91.99415 99.32143 105.48250 101.25973 119.99221 121.00261 118.72528 122.37173 111.23894 106.03586 102.05060 87.91914 28.20166 -11.93871 -54.63743 -94.38691 -157.36238 -221.43123 -453.69211 -1156.54231 -2380.00047 -3346.89318 -3772.90851 -3923.40928 -3947.93238 -3949.68610 -3959.55148 -3954.26530 -3949.75962 -3953.39831 -3950.40887 -3958.36163 -3955.16995 -3955.14478 -3948.14481 -3950.47816 -3952.45305 -3949.01188 -3954.58644 -3946.70103 -3953.85710 -3956.61984 -3949.38620 -3951.71733 -3959.22852
-1438.41271 -1435.32695 -1642.69231 -1638.85389 -1730.10456 -2027.44580 -2216.52342 -2539.70835 -2952.87113 -3327.99072 -3281.58662 -3672.30840 -3770.52567 -3872.36652 -3974.50552 -3970.49440 -3737.08675 -3332.98987 -2658.85750 -1351.90533 -433.82667 -61.28827 80.82525 298.61810 465.05356 589.86073 713.37314 669.46205 712.28835 775.79320 788.66406 799.27070 937.87593 1019.86223 1100.40469 1146.45847 1157.52054 1162.05476 1165.28730 1168.63728 1167.88150 1162.38367 1167.16410 1170.99572 1140.60471 1060.79714 894.70171 750.70061 656.97967 646.09133 518.57646 621.93703 629.06595 725.55360 859.13779 1018.98600 1108.81665 1171.58704 1178.86093 1186.31215 1182.90418 1182.02232 1176.45212 1187.08604 1188.35332 1146.99630 1030.70060 761.57370 586.97358 294.48791 189.64646 110.23994 79.90777 83.54693 59.58536 52.56566 46.77479 51.09540 51.49028 56.32244 45.79707 55.76071 55.98274 60.44075 59.82091 50.48454 58.61530 57.59435 54.42676 57.58353 58.54643 60.80603 57.09478 60.53151 66.11459 78.32612 89.57538 106.39030 119.93818 116.37082 118.67372 119.90731 125.70135 119.84942 124.19734 110.96439 105.19176 112.14104 104.63796 78.56086 56.16505 -1.49874 -72.95782 -85.87137 -147.39233 -273.92389 -620.08587 -1475.58739 -2654.01555 -3498.77521 -3854.08669 -3943.93043 -3954.05159 -3956.12379 -3944.25110 -3951.90526 -3950.55731 -3951.91716 -3953.07596 -3953.13118 -3952.86973 -3950.44954 -3950.74595 -3959.71222 -3952.33009 -3949.53014 -3957.18144 -3948.55186 -3955.25050 -3958.29603 -3964.62764 -3960.21423 -3955.25985
-2595.86338 -2596.43221 -2551.89689 -2781.18729 -2705.48910 -3173.49974 -3252.41254 -3496.70887 -3529.48131 -3744.88091 -3912.54899 -3959.89684 -3968.77469 -4014.83077 -4020.79844 -4004.80090 -3917.15591 -3610.65676 -3134.43446 -1824.03751 -852.70926 -201.94247 -72.58485 54.15028 231.81826 325.30846 442.05515 606.15409 690.37008 740.48441 788.56498 843.40340 972.55093 1040.55935 1120.61730 1155.22813 1171.60498 1168.26083 1168.97543 1166.22531 1157.42852 1164.09528 1171.05402 1165.86791 1104.30109 988.62308 864.70311 606.92797 549.22922 454.50246 476.76562 550.08616 550.82641 631.52184 744.83159 970.82337 1092.76735 1155.38138 1179.66112 1174.49199 1176.28274 1177.12155 1179.72862 1186.97431 1193.03341 1176.88182 1135.20936 967.33400 747.19574 512.12166 379.71700 239.88013 161.10161 96.74997 94.41474 83.78017 68.65387 53.96980 49.83027 52.09573 47.13035 52.59617 51.24624 48.94356 56.67922 59.97253 56.66153 52.47748 58.88801 55.32223 56.51467 59.34698 65.87653 65.66601 84.91861 97.49782 105.28048 110.52401 117.95422 139.78589 128.18509 128.82583 115.96391 112.81519 113.50580 105.16467 109.70686 106.88754 105.46742 75.08335 49.59959 -16.23503 -48.15735 -76.51415 -141.62911 -262.09221 -1046.49992 -1956.35290 -3020.58301 -3717.88735 -3888.28766 -3952.37642 -3945.45927 -3953.91533 -3952.57970 -3940.57376 -3948.59384 -3945.73484 -3952.31269 -3964.83409 -3953.62479 -3952.99130 -3960.69818 -3953.50732 -3955.98176 -3959.70207 -3962.15047 -3955.96433 -3960.23204 -3955.68879 -3964.64893 -3956.42192 -3959.53378
-3529.61050 -3530.56371 -3509.55992 -3380.60043 -3554.04902 -3718.07974 -3721.28778 -3854.47034 -3934.33723 -4009.25349 -4009.64422 -4025.73621 -4040.92808 -4023.90805 -4036.79101 -4034.76846 -4012.18342 -3852.55172 -3527.15262 -2477.76996 -1240.78049 -238.09865 -171.04401 -123.58587 15.44841 100.75356 318.93814 547.59855 620.80957 720.12379 813.99848 883.05128 1022.27020 1097.15890 1152.36231 1166.83884 1157.50669 1167.25254 1163.44784 1163.48390 1170.70574 1169.85643 1162.55616 1137.19273 1075.34293 952.49607 760.96347 525.00100 406.88253 408.71618 425.25778 423.17177 446.22671 497.01439 634.61522 876.66685 1071.38362 1119.71089 1147.83583 1175.35714 1170.43692 1176.65972 1175.52511 1177.12072 1186.02383 1194.90212 1180.51723 1112.85697 942.33403 773.81966 650.40401 463.71412 332.55219 179.04510 100.69532 94.68742 87.84024 69.29235 51.55755 53.85674 64.54070 50.68397 53.84218 54.34983 55.98591 56.58294 60.27518 59.52082 57.42006 61.36227 56.31204 53.56453 64.89589 67.25949 81.10985 96.69396 115.30631 130.04167 131.65347 141.22104 141.51996 143.47145 128.69758 117.16949 105.78474 102.05420 101.53253 107.85668 114.61222 75.94943 24.00684 -11.54028 -51.08135 -93.29746 -139.44529 -426.38348 -1416.42476 -2423.62484 -3318.35193 -3861.80308 -3929.78273 -3941.24654 -3949.71902 -3940.62904 -3947.50596 -3954.01406 -3952.90636 -3951.78708 -3950.80415 -3956.91128 -3961.72603 -3956.13192 -3955.35650 -3957.28752 -3961.51174 -3949.10689 -3955.04639 -3952.11063 -3959.44879 -3963.25359 -3968.21493 -3958.18118 -3970.61041
-3940.74541 -3943.96592 -3895.58117 -3878.51458 -3942.22797 -3994.32106 -3984.74873 -4031.08822 -4028.17606 -4033.54749 -4030.34035 -4038.99878 -4041.51915 -4032.13222 -4031.87121 -4031.79555 -4028.31468 -3972.39978 -3666.45440 -2823.02687 -1979.06134 -763.52169 -316.17440 -159.88943 -104.23943 -34.92000 148.87681 349.32944 513.91502 744.49092 791.48020 903.36160 1044.42434 1115.43280 1160.25047 1162.19718 1154.11850 1160.49875 1161.24522 1159.40571 1159.81622 1171.52198 1159.71647 1107.23428 1024.34329 896.17248 661.92572 511.17761 386.46814 362.76983 404.07534 413.19417 388.14987 411.19411 580.74632 730.04004 917.76317 1040.97536 1146.14407 1174.51934 1179.65860 1170.02430 1175.49880 1182.18905 1177.49006 1186.18343 1185.24020 1150.81453 1097.19955 1021.48774 878.02526 666.37719 590.84552 436.82274 224.83464 121.29302 97.45156 87.14493 59.76751 59.73340 52.28461 55.63228 52.96106 56.95834 49.94252 57.21379 59.95977 56.52957 46.87966 56.29770 56.00424 53.68820 60.67918 73.30030 94.81265 113.53223 135.24617 141.78825 143.10463 164.83029 165.40835 156.57252 136.21430 117.74408 107.67851 98.91670 103.69789 111.14413 105.01947 97.12137 38.38077 -14.02068 -45.56662 -114.76417 -151.81699 -780.38689 -1651.69491 -2830.63225 -3611.10092 -3822.15202 -3933.13947 -3942.95398 -3951.50676 -3947.11965 -3950.27980 -3953.14944 -3951.66127 -3955.08692 -3957.72494 -3957.38715 -3949.18365 -3955.88367 -3961.62731 -3953.94207 -3958.11961 -3964.56815 -3959.16209 -3958.85749 -3959.91862 -3967.91399 -3968.66002 -3971.33790 -3971.51342
-4041.57552 -4047.31404 -4035.89420 -4021.47071 -4042.18409 -4039.86526 -4036.82917 -4041.10727 -4043.11310 -4041.72185 -4038.04661 -4035.56812 -4040.86111 -4042.33444 -4041.99046 -4042.03179 -4018.95900 -3969.09234 -3611.36326 -3207.10996 -1920.63113 -1035.93186 -351.71219 -159.48841 -108.49268 -78.61151 -20.10377 144.17638 346.69156 585.33490 727.49490 871.15687 1016.51675 1083.24022 1131.26858 1102.91864 1065.92490 1135.21876 1156.45022 1141.37881 1128.39640 1136.20034 1116.10076 1064.31605 969.50854 840.27330 687.26541 500.64435 396.42800 364.59093 361.56214 372.00211 340.60237 366.77005 483.58535 611.14315 785.96991 1046.45317 1162.59953 1172.77824 1175.20400 1174.05948 1176.63814 1173.60081 1178.71371 1177.54843 1176.00200 1184.43177 1174.50867 1148.70658 1093.65553 1060.40298 904.96570 570.26833 361.81927 166.43193 98.94090 89.78102 69.54038 60.12737 57.77209 55.33083 53.92063 53.89257 56.16193 53.63979 55.16119 52.79435 53.48705 51.42899 58.98048 63.74017 63.16839 83.98854 99.72299 119.05915 140.45929 143.74496 172.20029 185.19353 181.78421 166.04531 155.71049 125.53961 113.97097 99.46516 103.57388 98.48415 101.47040 79.74917 39.41234 -9.11294 -29.56590 -86.01295 -179.05264 -643.47175 -1998.14021 -3070.06554 -3560.14560 -3900.06232 -3948.07912 -3945.93862 -3948.58866 -3949.68597 -3954.77264 -3953.01685 -3950.67232 -3956.13407 -3960.31923 -3953.22971 -3954.83232 -3956.62383 -3956.25627 -3957.05072 -3968.61891 -3958.03868 -3961.78963 -3962.42576 -3966.14099 -3966.55546 -3977.74830 -3973.19329 -3975.12496
-4051.66154 -4049.99278 -4049.36188 -4036.94981 -4052.11611 -4046.88527 -4050.67658 -4039.80253 -4040.94244 -4040.68697 -4039.80183 -4042.49367 -4035.86521 -4033.46137 -4045.56631 -4036.47772 -4017.11693 -3833.81222 -3546.11590 -2842.04757 -1768.04461 -818.57187 -361.15026 -161.72079 -145.18169 -126.11544 -63.91171 41.76282 178.33798 431.65654 612.59862 811.41876 910.31676 988.29839 1069.32564 1088.78536 1017.10156 1048.88601 1095.08414 1093.02695 1059.97675 1040.30738 1044.32693 934.63014 890.25088 800.75722 668.75479 457.80890 381.32301 356.94534 346.82879 329.41012 329.37471 337.97762 355.19126 525.03759 731.84681 1007.25950 1134.93849 1163.92109 1172.14446 1174.22863 1170.46589 1179.32606 1175.18524 1182.88619 1180.13602 1181.99573 1194.97270 1179.03683 1168.19941 1142.38264 1051.16213 797.10610 437.01700 254.02586 159.34209 119.89234 95.86054 71.97806 72.36102 60.89685 53.43622 53.78462 51.49850 54.15392 50.82920 51.80823 54.85058 59.18998 64.39298 58.26359 72.96676 86.59181 117.30904 130.33765 162.98889 192.28403 212.89415 225.47159 229.07428 192.43296 145.15204 127.70052 103.65029 102.05277 104.56872 105.12915 105.34618 83.02700 74.17351 27.88894 -48.37676 -103.67268 -256.07272 -571.97591 -2150.88618 -2873.92143 -3669.18877 -3888.71152 -3943.39086 -3951.52441 -3953.81494 -3950.91105 -3950.28762 -3957.30543 -3952.09798 -3955.71511 -3958.31062 -3953.12375 -3965.40308 -3954.89155 -3959.47195 -3965.13094 -3968.45165 -3964.63140 -3968.97965 -3958.19375 -3968.09408 -3968.68230 -3971.56985 -3982.35603 -3977.44262
-4047.89315 -4049.29551 -4044.37308 -4050.20095 -4045.69499 -4044.94281 -4044.79665 -4045.31694 -4045.12386 -4045.41984 -4045.79659 -4036.27242 -4038.91376 -4030.25585 -4036.28561 -4027.88242 -4009.22427 -3704.59240 -3285.64115 -2445.17609 -1216.00144 -733.55729 -314.14663 -215.04046 -205.73705 -141.84574 -86.11705 -87.33346 24.40379 184.58989 491.52291 664.32116 827.49853 915.88299 943.80464 1022.57817 915.39497 970.43178 997.45554 977.63982 959.55050 933.00999 900.30735 797.76648 734.64225 657.75264 598.53312 432.95560 354.75668 326.18249 333.66999 347.75285 357.77839 362.67018 379.17260 480.66241 643.21574 948.37803 1026.30082 1128.34812 1151.47969 1170.70688 1180.33959 1180.04090 1181.65640 1177.82966 1181.43610 1169.36620 1181.99301 1167.13455 1144.48747 1104.98746 1027.99645 827.63593 509.01598 374.81557 260.55543 215.23835 175.34535 147.78935 109.23210 183.51681 111.41963 73.73994 50.37450 49.70397 51.49744 50.40837 58.40105 56.39406 66.13845 69.79891 81.02522 121.22318 130.88345 156.03333 172.22351 201.29875 222.62474 255.72910 255.97863 218.12239 154.18566 118.25071 108.81055 95.57984 95.75742 107.40327 104.92871 106.19532 87.82316 35.65068 -34.45335 -60.39519 -106.60915 -633.85407 -1741.36429 -2687.23441 -3669.25326 -3878.80312 -3925.48126 -3944.12846 -3945.08312 -3952.15725 -3952.75156 -3947.32767 -3957.01368 -3951.06732 -3961.37789 -3964.40184 -3961.12543 -3957.26633 -3960.59074 -3960.29617 -3961.34301 -3961.45968 -3968.25439 -3969.28409 -3973.82967 -3976.34700 -3971.44780 -3976.10896 -3984.96114
-4055.86404 -4044.21591 -4045.30349 -4040.08916 -4042.42159 -4048.77920 -4050.35327 -4036.88789 -4036.40013 -4035.18995 -4042.25588 -4036.70425 -4038.01324 -4042.27473 -4040.65934 -4017.85645 -3938.33244 -3682.21949 -2721.00526 -1792.79076 -988.17038 -382.23805 -312.83629 -238.08781 -224.32834 -190.23902 -143.31268 -101.13252 -34.64764 17.30940 276.42545 492.37454 735.63285 793.28341 854.76144 854.51358 769.16871 845.28620 895.78747 873.42105 824.05084 806.32603 733.68141 727.74347 681.12687 479.51980 440.53402 389.51755 331.49829 338.78379 353.49811 363.42491 369.81716 375.56429 392.00849 455.42261 577.15909 809.57120 999.03501 1110.77600 1096.92371 1116.70799 1176.00637 1183.49964 1180.78327 1174.70233 1171.66749 1160.66479 1146.69659 1098.90860 1029.15860 960.21247 896.71015 724.14647 656.49742 487.54684 415.26938 357.93504 323.59263 289.83081 324.30142 350.66828 222.46648 162.33299 79.34352 65.07586 55.81888 54.52418 50.48923 62.26189 62.29882 68.72173 110.87160 128.34333 141.07763 165.70417 183.45107 211.89405 247.59321 289.08192 269.41160 194.15485 166.90444 136.52427 108.72099 97.90154 91.64474 106.76954 103.34142 109.71294 83.80052 8.60821 -14.00163 -52.32211 -111.93213 -486.09262 -1391.72134 -2688.84495 -3321.01719 -3789.20537 -3901.78624 -3945.26263 -3951.26352 -3953.77378 -3952.29935 -3962.23028 -3965.07677 -3958.62741 -3954.69349 -3962.53000 -3960.59775 -3966.86185 -3971.07552 -3969.27885 -3964.55723 -3969.23254 -3973.15790 -3974.92167 -3966.69800 -3978.25545 -3974.14938 -3988.05656 -3979.87210
-4052.17310 -4051.56834 -4047.55656 -4044.73328 -4052.90923 -4043.78900 -4045.83950 -4042.57438 -4048.38686 -4037.70228 -4042.22638 -4039.76379 -4046.31474 -4034.76615 -4031.64983 -4011.65305 -3906.74074 -3475.39122 -2485.46295 -1664.54267 -780.70161 -366.88460 -291.81949 -252.05191 -236.44898 -192.19244 -163.98291 -121.29663 -110.69728 -11.98758 141.70332 467.21585 577.73652 728.03371 777.47650 711.28946 562.19948 626.67902 732.16176 719.07885 662.58501 596.18896 563.68234 598.42065 488.49944 410.81688 330.12693 327.29593 329.85062 349.25805 358.37975 372.16549 376.76852 464.81651 463.32770 539.56064 676.50775 811.35985 944.16009 1051.22974 1032.82352 1034.99667 1145.11731 1143.64886 1159.35775 1155.24624 1110.48235 1090.13472 1111.09285 1035.32163 883.13778 817.88451 794.71943 726.39286 669.28113 618.02083 550.90458 514.74370 517.06131 554.97023 646.64636 536.71726 421.25661 233.57786 82.64079 59.98593 57.11210 54.34733 56.40143 53.12191 60.89331 87.36619 135.91048 146.22294 150.42462 183.52040 204.81626 221.59707 242.50017 252.96535 229.35524 166.97137 164.61677 126.00959 105.97141 101.81514 94.76165 92.54477 103.04283 106.19214 81.49509 20.27084 -25.66814 -73.89068 -114.00434 -360.43432 -1012.85098 -1886.52488 -3110.47898 -3450.15055 -3738.93396 -3940.38739 -3943.25189 -3948.36856 -3961.89206 -3952.59447 -3962.94023 -3961.26741 -3957.85572 -3968.66599 -3969.06349 -3968.98480 -3966.38463 -3972.60277 -3969.52110 -3968.44630 -3976.46094 -3966.25811 -3965.75235 -3973.90896 -3979.20691 -3978.61538 -3980.16738
-4043.94141 -4044.85276 -4048.06547 -4053.09039 -4041.36030 -4042.46398 -4043.39490 -4042.96466 -4043.97515 -4036.19002 -4042.57742 -4039.45452 -4038.81735 -4027.63379 -4043.08132 -4013.20776 -3867.76530 -3555.37605 -2457.43964 -1901.22297 -948.90742 -562.52838 -297.52065 -258.56549 -230.41973 -220.02588 -187.53012 -135.55822 -107.15399 -84.99269 -35.27387 195.86290 455.92964 644.52768 713.01356 550.12375 304.75588 439.29761 520.15644 544.56787 550.31561 397.91487 327.37390 341.38007 387.88629 303.50440 264.48542 271.42808 331.47033 368.90819 393.23418 416.58792 434.05338 524.58671 602.86520 716.01621 812.69243 928.16013 921.99737 961.05820 946.38562 939.62651 1013.26419 1083.14471 1051.81625 1071.36920 1042.89561 1044.66782 994.13300 925.88188 790.18597 760.52048 717.71564 694.24542 692.59723 672.54913 678.72596 659.96149 672.07284 722.28163 731.54305 664.39747 424.09382 216.67848 98.31162 62.63387 57.78798 60.43054 50.89870 50.75653 58.15797 113.65179 155.88113 181.29814 206.75033 215.42008 219.24943 217.48762 229.85095 215.24597 198.81041 170.29672 142.97508 105.10691 95.91471 101.83151 90.33092 91.90199 91.95368 97.23231 90.16506 50.76669 -13.99221 -68.02169 -111.25879 -115.07972 -401.66632 -1330.84320 -2128.07598 -3040.14177 -3459.97721 -3754.95578 -3939.35175 -3956.03670 -3962.20986 -3960.44888 -3956.78527 -3965.66132 -3959.96685 -3966.75509 -3958.53068 -3968.24723 -3969.21355 -3964.49987 -3966.92582 -3969.88121 -3974.32291 -3970.92238 -3971.77797 -3968.96328 -3978.09332 -3979.05559 -3981.01092
-4048.42159 -4052.53237 -4037.47427 -4042.44623 -4034.70079 -4035.95506 -4040.45491 -4041.05945 -4040.67974 -4037.41699 -4040.10900 -4033.62897 -4043.88872 -4041.26461 -4035.97720 -4023.87446 -3936.40341 -3819.86532 -3296.39772 -2373.88696 -1360.17717 -826.84024 -466.21810 -275.59207 -262.22032 -239.72234 -205.20255 -182.15579 -135.60360 -108.08193 -81.57754 37.29008 222.66665 604.86561 579.90877 483.65509 162.85734 172.00229 255.36309 240.69903 220.80376 260.44805 209.72365 140.59066 229.52353 230.74390 229.92098 274.67806 391.91646 413.42465 479.81986 531.09827 560.15386 671.08779 788.64125 907.46584 942.87267 1027.29874 999.74960 953.43236 895.78996 854.72114 908.65927 935.35148 906.05166 887.08422 889.49784 799.13989 826.14257 791.09394 730.12393 699.60746 693.54488 681.88966 684.69676 666.23814 615.18439 609.56728 619.20260 680.22314 733.15739 590.88340 401.72698 183.64332 97.94680 53.94012 60.50587 51.00993 62.61041 83.45602 102.86642 130.20995 162.68527 233.40552 279.65801 269.37215 251.50117 224.80746 211.49341 182.22684 165.34308 155.43001 118.97367 100.45603 99.59619 95.40067 94.36676 88.51933 96.07591 99.42499 91.28645 74.22080 5.36971 -28.17964 -100.32675 -134.74862 -276.97870 -558.72467 -1384.17195 -1967.78841 -3103.20582 -3606.69716 -3897.97644 -3951.88883 -3956.61259 -3964.05801 -3963.73428 -3969.21191 -3967.62121 -3973.46755 -3960.23731 -3971.82836 -3970.00029 -3975.57307 -3964.16345 -3970.93074 -3966.14483 -3972.91904 -3974.78420 -3970.33249 -3977.85804 -3987.87087 -3982.18954
-4041.84182 -4048.70226 -4043.54417 -4046.57281 -4043.10703 -4046.23998 -4042.38694 -4037.09373 -4040.81537 -4042.61615 -4043.17418 -4038.81439 -4039.12842 -4038.92099 -4041.36844 -4035.45948 -4000.25035 -3906.82648 -3602.87984 -3221.56672 -2242.81929 -1650.56621 -1082.99028 -377.28085 -291.02088 -241.75345 -216.41463 -208.56052 -198.31177 -119.63371 -111.65715 -58.74697 157.59082 426.06289 462.69362 204.47845 90.96591 40.18802 63.00768 53.46262 88.12724 83.40697 77.55100 114.92768 171.73392 202.94416 323.29526 399.54842 493.56712 508.83609 549.42558 580.58433 666.61230 708.21367 873.17497 1016.08435 1082.95219 1086.73309 1039.38968 964.24370 874.24327 826.47190 801.10466 809.45577 815.92314 797.37663 759.38117 727.29098 736.20937 725.29940 698.55531 657.35993 657.11064 642.19761 591.20178 577.79088 548.72454 537.78566 524.66876 520.17966 527.21097 363.27560 282.35228 123.80002 64.92108 51.32514 53.50436 56.56125 75.58753 85.05373 114.44984 148.86183 198.52281 319.58334 402.59751 345.01658 243.29840 210.16437 186.67783 173.33934 138.48224 114.33260 105.20283 104.82994 94.39915 92.52136 96.17476 91.95363 89.54786 99.18970 95.79934 69.07815 32.77874 -19.85250 -81.72856 -112.93418 -153.79398 -265.45676 -857.22310 -1799.94954 -2797.04242 -3386.79798 -3856.66952 -3959.86488 -3963.94441 -3971.45169 -3959.72845 -3964.94332 -3966.58516 -3965.22618 -3967.66697 -3970.06267 -3971.63553 -3963.27949 -3974.42642 -3969.89404 -3963.62734 -3969.86406 -3974.54481 -3968.42262 -3976.03007 -3983.45264 -3978.76581
-4046.99958 -4051.19943 -4040.67516 -4049.24826 -4036.02175 -4038.85706 -4042.93731 -4045.47589 -4033.79489 -4048.99331 -4039.69351 -4031.38404 -4041.57296 -4044.41350 -4029.01665 -4033.17695 -4023.01171 -3995.41197 -3940.91471 -3720.37210 -3051.00958 -2168.52062 -1330.57108 -715.37590 -403.61610 -230.94850 -227.93627 -228.50662 -198.20636 -142.64546 -108.51769 -75.68529 -2.76506 158.61716 230.87931 83.55895 -29.69154 -45.55041 -31.88494 -31.17875 31.70044 64.70103 74.90560 99.74243 149.24616 226.92061 371.76214 531.67211 619.45872 636.46351 607.46780 668.94469 756.41265 855.87729 1008.17024 1103.76716 1150.14330 1145.10182 1100.95345 1042.03358 947.06942 866.62013 765.54513 745.50119 728.54976 706.21653 710.69910 676.45555 694.26010 646.48487 609.36983 611.62242 621.39026 593.76287 537.65678 486.34309 424.98946 398.28873 363.33062 375.99709 382.40829 230.07617 176.97273 81.46580 57.64827 53.77988 44.58495 65.35905 80.86190 81.38833 139.85333 200.07459 292.52013 403.51340 443.64884 351.59811 252.48666 224.01554 176.96761 151.47879 139.03599 120.85759 109.61114 95.58551 103.40045 94.88602 85.24736 87.65215 91.03861 103.26473 95.98196 71.45304 38.74582 18.07175 -42.97946 -101.45731 -153.17782 -271.21497 -544.76491 -1198.16760 -2477.07130 -3460.93301 -3826.54295 -3944.24643 -3969.74361 -3962.89232 -3964.20006 -3967.94592 -3972.36924 -3974.11953 -3969.16547 -3971.23405 -3971.42156 -3966.21794 -3966.84443 -3962.89645 -3972.35814 -3976.60871 -3964.17865 -3969.58890 -3975.51780 -3986.17857 -3981.21491
-4042.96831 -4039.57881 -4043.15761 -4043.31555 -4045.06771 -4039.45606 -4039.05351 -4041.50400 -4034.15399 -4033.49030 -4040.43646 -4038.43516 -4040.97968 -4042.92720 -4036.30405 -4034.62480 -4031.53831 -4016.92587 -3965.90633 -3753.86582 -3553.30975 -2765.08056 -1756.10220 -1001.66223 -416.90725 -245.29674 -242.27372 -231.70228 -214.39494 -173.69217 -129.48914 -115.29194 -63.77792 22.25075 11.56979 -47.32097 -88.88937 -78.01696 -57.99365 -35.06826 4.19975 7.94773 33.25908 70.98380 121.26696 160.96918 387.62895 569.48954 668.29101 671.11216 677.43275 698.91932 794.28231 908.57440 1031.60739 1119.93974 1168.26570 1168.18976 1151.29865 1128.57732 1015.03503 883.88133 773.64058 685.89134 661.93549 649.51870 625.73904 604.80676 632.54014 591.31365 515.63542 491.05587 489.76377 456.15526 428.54143 390.59050 357.80200 324.93249 270.83695 235.41633 188.20778 133.84289 108.79964 71.22087 58.88690 59.42995 47.82214 68.62165 106.22793 139.00639 170.61328 280.74537 375.46531 522.66076 432.86966 323.49394 231.40106 207.66074 155.95022 158.37788 140.34153 121.61916 102.51330 95.81612 88.55291 94.16713 89.90595 95.38142 95.42207 93.69568 98.59295 82.56868 49.83931 7.19282 -26.25289 -77.70664 -148.38965 -221.44065 -570.29958 -1373.71085 -2791.14312 -3336.53790 -3815.96616 -3951.61733 -3965.51848 -3960.92374 -3968.48220 -3979.19909 -3971.04485 -3965.32685 -3965.81360 -3976.75997 -3969.07947 -3966.60042 -3962.68049 -3970.70391 -3967.09292 -3965.05340 -3968.47570 -3966.58608 -3970.32117 -3979.54597 -3976.68197
-4049.35482 -4043.56844 -4032.64677 -4042.05829 -4039.64791 -4038.35716 -4032.17014 -4042.26591 -4042.02352 -4047.09645 -4031.04291 -4033.53652 -4034.90183 -4032.09080 -4037.37638 -4035.81215 -4032.06543 -4030.92552 -4031.35050 -3938.25631 -3815.57643 -3045.52723 -1976.83869 -1175.24485 -486.03425 -289.25503 -227.66260 -238.68228 -228.71545 -217.19357 -214.97317 -189.27276 -157.13488 -120.76387 -90.88362 -119.78124 -125.40961 -112.76609 -76.11474 -38.66049 -23.00394 -10.59562 27.91559 61.98350 146.72340 270.25907 408.21629 533.06840 636.37503 696.50387 733.48888 767.18445 899.64479 1015.42079 1089.05572 1136.57154 1165.82563 1181.08828 1172.92665 1142.91834 1058.22899 889.39052 809.19787 707.47989 599.92918 597.12535 594.55402 523.20072 535.10334 449.43361 425.56962 389.73770 398.22125 354.70333 351.82826 329.43072 311.36101 281.21401 185.85360 167.91950 99.42264 91.32185 93.50632 58.88512 52.47434 54.18758 53.56142 57.92699 93.28320 158.36171 240.57657 429.35774 422.13260 575.23022 415.74691 259.59196 226.74477 201.10064 160.68517 160.97181 139.12449 118.02831 101.67971 92.65454 90.73159 89.05582 84.52752 85.03854 82.51785 89.48966 96.86251 93.19941 75.48248 30.04825 -12.16483 -58.76917 -118.17809 -252.89005 -639.16255 -1307.48107 -2652.39776 -3492.19131 -3867.19462 -3947.29750 -3970.10418 -3970.57561 -3974.16245 -3971.55272 -3965.87268 -3964.46573 -3965.78991 -3968.21855 -3964.94820 -3967.53268 -3962.38166 -3962.37597 -3963.53686 -3966.83435 -3960.99149 -3966.85174 -3967.47465 -3980.45805 -3975.19047
-4039.74509 -4036.29069 -4047.07252 -4040.87375 -4042.19731 -4040.27358 -4043.59751 -4033.34218 -4031.59500 -4030.27986 -4039.32218 -4032.62076 -4039.84424 -4039.06300 -4029.76491 -4034.22793 -4035.77014 -4038.56832 -4031.30229 -4003.12264 -3686.08630 -3183.20719 -2026.86080 -1145.14870 -479.92430 -290.99284 -246.41978 -248.07371 -248.84627 -294.01859 -274.76119 -249.24079 -247.40433 -196.24728 -134.62573 -135.95472 -125.59215 -126.26485 -87.68112 -48.54444 -36.96639 -32.89877 0.79804 5.30564 108.44461 254.41142 496.68699 604.83224 660.01333 705.76958 774.90185 827.86598 953.62571 1036.55735 1144.82602 1163.80480 1169.64349 1177.21182 1167.16801 1152.40989 1056.32015 956.81727 804.67199 700.57276 585.26673 532.84689 555.39648 445.08617 396.64795 371.64723 367.17763 354.35735 334.75454 320.36266 311.28900 326.25159 309.92332 264.54424 188.96933 143.28887 107.84798 90.03647 92.83774 56.43359 49.79257 54.61533 56.43283 52.09514 68.61839 142.10130 237.36967 496.40136 644.47712 635.85552 444.67887 305.98822 244.49909 219.52465 188.89228 151.82766 130.08548 92.65095 84.54114 82.81767 83.39523 85.49436 84.45981 82.90149 91.57895 95.82685 92.18473 86.85842 78.04776 41.42813 -17.67077 -55.12460 -112.25267 -316.80142 -959.33364 -1811.10964 -2894.28212 -3575.84436 -3928.70409 -3960.86954 -3971.44554 -3972.63189 -3973.33527 -3975.40655 -3970.61120 -3970.84056 -3964.85373 -3970.76807 -3966.31085 -3962.46554 -3959.37827 -3954.75970 -3961.87484 -3958.86937 -3961.08725 -3962.06300 -3968.88362 -3974.14419 -3977.84200
-4040.84692 -4044.07693 -4044.74094 -4041.34309 -4041.81400 -4039.33612 -4039.82231 -4039.29847 -4035.01211 -4041.94603 -4040.42153 -4034.77600 -4039.58723 -4031.82340 -4031.09544 -4034.04622 -4035.51062 -4033.93045 -4022.24780 -3986.20411 -3478.27861 -3089.24592 -1946.23638 -1037.61658 -613.04769 -416.95573 -567.09118 -499.47320 -436.19418 -616.71467 -449.73222 -442.69529 -484.83792 -473.02906 -267.42528 -206.80682 -144.53233 -136.03991 -125.31216 -115.74396 -70.27079 -54.72507 -41.06746 19.44846 179.72760 453.31118 578.91096 688.91115 715.59330 796.27467 820.03023 972.49786 1056.37597 1101.72102 1139.66633 1169.14252 1170.28826 1170.83018 1164.62029 1134.17348 1044.12847 950.97388 850.76795 684.92789 622.94246 487.67714 382.00753 373.33626 368.78199 351.68931 322.58736 314.94297 301.45361 279.67409 294.29239 288.39664 287.12497 245.73382 194.45571 140.05961 107.28363 69.49148 63.71948 59.20124 55.93640 52.79910 55.30811 55.23858 80.68775 114.81749 255.43914 444.69656 523.77543 562.44371 481.59455 262.41358 236.52661 195.46642 167.67807 152.81256 100.55894 80.42664 80.81223 81.39729 83.36007 82.22244 86.51084 93.65202 76.33241 87.96099 85.02662 80.04088 72.56716 56.10546 -1.79501 -64.57974 -119.71228 -398.47884 -1080.77478 -2134.68763 -3295.71588 -3784.69315 -3948.53594 -3968.65177 -3970.59167 -3968.12108 -3969.52824 -3972.21958 -3971.60713 -3969.54874 -3961.97808 -3960.89881 -3966.10095 -3963.91050 -3955.92668 -3961.85453 -3955.98307 -3958.52834 -3962.42054 -3967.38739 -3977.01727 -3983.67915 -3981.04918
-4042.90402 -4043.72907 -4043.22493 -4038.95804 -4034.83478 -4037.73024 -4037.82825 -4037.79362 -4037.23335 -4032.02074 -4040.09977 -4039.62958 -4032.64320 -4032.01314 -4030.15948 -4032.36304 -4033.94059 -4033.76932 -4011.12369 -3891.60479 -3603.29702 -2656.84892 -1754.45947 -1016.37481 -836.79600 -1026.46639 -936.71653 -919.22300 -1182.83519 -1091.42017 -1240.01995 -1247.10770 -1565.75511 -944.03331 -608.11388 -274.95846 -163.40971 -165.33628 -155.58505 -147.18383 -114.89454 -67.71351 -56.76637 95.03245 245.06247 451.46804 654.71880 738.26074 763.98435 852.24493 900.21456 1026.40775 1119.59553 1140.36011 1157.94208 1163.64236 1163.66706 1161.81548 1147.35282 1109.57840 1018.85771 892.85398 772.30483 666.63810 567.85371 482.95354 372.21423 344.40538 339.03694 325.73890 312.27993 315.11585 278.93116 266.61250 270.08100 281.92405 259.50809 204.31089 130.46989 114.35965 79.09165 63.45119 47.48829 60.36376 52.97548 49.75140 48.77184 70.17503 95.32923 117.39017 269.66672 417.98148 476.76637 497.87853 406.00330 259.35402 213.11665 159.99438 145.02641 120.49918 101.32772 80.06206 77.16805 85.09635 78.61730 82.88699 90.78472 79.34998 77.60934 61.84096 50.28560 49.16953 28.05263 30.64514 -24.57602 -76.55428 -140.28322 -369.67171 -1152.49240 -2289.02998 -3472.29743 -3899.73555 -3952.96249 -3974.39831 -3970.59767 -3972.59191 -3970.40584 -3971.12038 -3971.87359 -3963.53581 -3955.77588 -3958.52631 -3959.42409 -3957.31174 -3951.28134 -3951.69630 -3959.48399 -3954.50171 -3958.30885 -3956.82926 -3970.61105 -3976.87941 -3978.34661
-4049.35215 -4040.76684 -4039.73307 -4037.73837 -4034.77493 -4033.83598 -4031.57599 -4042.45025 -4036.17148 -4033.50948 -4035.71722 -4038.19227 -4025.22529 -4035.38542 -4037.32867 -4032.53920 -4026.80291 -4024.79463 -4023.70522 -3961.88942 -3592.29548 -2955.23313 -2069.29521 -1582.97360 -1514.64480 -1598.31072 -1993.37669 -1875.75826 -1905.60273 -2037.51549 -2296.88078 -2104.48518 -2107.57451 -1832.88179 -1183.06420 -339.90096 -292.38641 -242.99058 -190.33438 -169.24151 -164.45040 -138.44485 -104.83004 91.81139 277.40783 541.68359 692.54427 790.21385 888.05083 926.62850 1036.78233 1104.93134 1133.45069 1165.05242 1163.71557 1162.13917 1132.90022 1124.75652 1117.97532 1066.52307 969.29315 839.49250 751.18623 677.59665 460.44640 401.51382 327.41904 327.21800 330.07401 323.84347 319.75524 317.12705 302.52908 270.46089 270.37455 259.07256 230.62343 169.42230 132.48814 100.42176 88.17961 45.11149 57.95731 52.98783 50.69722 61.61117 72.56966 101.55729 102.48660 163.08018 267.89058 384.48087 482.83106 503.16572 358.97871 224.80909 207.81977 164.96404 135.87836 106.05185 84.45070 81.43036 76.78012 88.51297 86.78465 61.62975 57.19608 58.48083 30.38725 13.46859 9.41769 -1.94083 -2.41029 -2.32521 -24.83059 -75.72153 -117.14035 -520.36174 -1754.98394 -2740.68074 -3602.76833 -3879.38800 -3963.53168 -3976.44530 -3969.43943 -3973.98527 -3970.61182 -3972.99781 -3961.90575 -3966.30471 -3953.67161 -3958.81672 -3953.53884 -3957.46290 -3954.23766 -3949.92698 -3952.02754 -3948.64634 -3957.36642 -3960.63207 -3968.69143 -3979.82085 -3987.15917
-4043.86707 -4041.49674 -4042.97291 -4045.71705 -4043.06530 -4043.65757 -4036.29646 -4046.90520 -4037.78526 -4031.89484 -4039.60088 -4036.74615 -4031.22407 -4035.24720 -4035.03279 -4037.62776 -4026.58811 -4036.73473 -4021.92911 -3975.74702 -3728.35349 -3361.67121 -2895.75141 -2655.85257 -2620.34383 -2886.98877 -3090.63912 -3281.03015 -3249.57048 -3325.53458 -3091.53835 -3432.94441 -3216.42954 -2961.71654 -1108.23804 -635.07966 -441.92039 -278.99199 -232.94835 -208.79609 -210.63796 -161.78841 -105.34066 -10.25995 261.76297 482.13056 648.90663 805.66567 935.43450 1026.51929 1096.90150 1141.24528 1165.88882 1171.90846 1153.89077 1135.29244 1099.08824 1083.87098 1055.79587 1015.95663 960.55098 909.31813 743.98799 626.22065 468.90685 409.20678 354.42669 310.81624 317.84207 316.02788 317.90876 313.59579 314.56742 272.79293 263.40770 252.35744 216.56650 165.26793 136.52470 111.22259 91.67708 63.47402 47.34388 58.51809 56.00175 53.63681 61.14837 111.06723 114.99955 166.42705 244.01790 310.84772 438.30155 436.91294 309.47003 234.21908 174.05618 149.15912 136.96301 91.29523 86.83068 81.69369 81.59812 55.27153 57.80093 48.26549 19.98436 19.62313 0.18667 -36.71305 -33.33323 -31.27931 -61.16308 -61.65451 -71.77948 -94.41186 -194.50568 -866.65525 -1389.70722 -3122.60914 -3676.68769 -3919.55520 -3968.70742 -3972.13128 -3963.60109 -3976.90419 -3972.14863 -3969.66644 -3965.34651 -3975.86250 -3961.92884 -3963.19247 -3958.49709 -3954.71847 -3954.42682 -3949.19975 -3946.49637 -3951.57754 -3950.16782 -3959.79522 -3959.71495 -3987.03921 -3985.38131
-4042.26912 -4045.51383 -4043.40899 -4041.59224 -4041.18091 -4038.15928 -4036.65939 -4035.69720 -4039.70170 -4042.67312 -4036.24777 -4034.07522 -4038.08376 -4035.56039 -4031.37079 -4034.78777 -4034.86266 -4030.72931 -4033.63945 -4019.91474 -3946.04084 -3662.18307 -3628.37578 -3540.27042 -3379.92996 -3592.99480 -3660.57365 -3699.38172 -3717.16268 -3759.70792 -3891.99221 -3836.47017 -3744.25805 -3306.53414 -2134.77902 -1166.53960 -618.89341 -299.30949 -248.26465 -232.67237 -215.21234 -181.88638 -105.89304 -53.47030 149.08521 361.46536 494.45261 820.91289 929.39612 1042.60763 1091.73228 1138.34394 1149.76324 1156.26688 1136.88077 1105.79148 1070.83588 1038.67809 1012.90730 986.54448 939.76574 904.07155 812.26918 753.25916 589.16669 411.63760 349.21976 338.89562 316.75313 310.63752 314.74886 319.65070 315.99719 277.95779 251.17886 248.39651 207.99308 156.76855 144.91058 122.90390 109.34520 78.59904 51.14386 55.12914 54.81597 56.95576 65.97074 98.69893 139.69161 152.10941 233.07260 278.72530 336.04904 335.22175 253.36709 200.10096 159.59938 110.57334 83.06022 87.55777 86.87802 63.27367 42.74334 34.58347 11.51112 -21.10200 -19.91834 -9.67357 -70.33012 -75.09725 -70.66170 -76.60195 -91.96216 -98.57011 -118.86264 -135.56172 -375.09340 -643.10674 -1932.43338 -3316.68985 -3696.22286 -3929.06312 -3972.55602 -3964.60640 -3968.53908 -3966.74292 -3968.73305 -3964.12998 -3957.50203 -3956.82879 -3958.59997 -3957.27038 -3944.02906 -3947.65870 -3947.03859 -3947.35780 -3943.25035 -3946.69936 -3951.93397 -3963.54016 -3974.93522 -3989.16862 -3981.37378
-4043.69502 -4046.39609 -4038.76125 -4038.17063 -4045.83694 -4036.64641 -4031.53154 -4037.08220 -4038.90723 -4040.60956 -4038.34948 -4034.68215 -4034.60220 -4030.16685 -4032.79317 -4029.90189 -4030.46325 -4026.96532 -4029.72728 -4025.93625 -4023.50947 -3944.06037 -3904.52172 -3856.69968 -3887.27622 -3938.91300 -3991.34118 -4007.12996 -3987.88335 -4000.90000 -4004.65230 -4019.90927 -3993.86827 -3916.49402 -3106.56937 -1820.07533 -1111.48302 -491.12885 -277.03150 -243.63362 -215.38147 -192.54183 -138.13008 -73.38250 -22.61609 182.50037 438.63817 748.77726 906.29985 1010.39372 1046.19505 1105.50342 1111.02981 1126.50911 1104.48434 1079.22780 1018.06494 940.46900 921.83276 939.96823 928.30882 899.06365 870.49715 800.59769 650.74254 498.88710 360.26497 346.58839 327.70158 325.47412 311.42329 315.05061 309.09636 278.96255 245.69625 220.34724 185.27866 152.20045 134.90408 124.69173 89.08983 77.50127 57.53271 60.86869 55.01781 57.54152 55.02768 102.19349 151.47694 167.09566 209.63905 233.40817 237.59453 247.21261 192.01266 175.63074 131.17895 72.99552 51.86039 51.42290 56.50502 21.18435 -4.52291 6.90071 -14.37712 -30.59486 -42.95929 -76.75611 -105.34873 -94.29033 -96.68932 -117.05756 -136.52851 -145.60107 -146.36619 -206.21646 -405.74440 -958.29381 -2163.69875 -3167.37783 -3710.30419 -3927.67386 -3965.02385 -3966.61059 -3968.77565 -3959.86446 -3965.59523 -3955.48956 -3959.55902 -3950.40682 -3956.14542 -3943.41781 -3944.50232 -3943.36572 -3946.46915 -3947.63812 -3941.22915 -3941.36146 -3945.26527 -3959.51743 -3963.04332 -3981.10058 -3980.58424
-4044.81928 -4045.83536 -4038.44473 -4045.88183 -4031.73564 -4039.34973 -4045.86347 -4037.90649 -4038.17448 -4035.19948 -4037.90520 -4042.63681 -4038.06850 -4034.89923 -4036.41052 -4035.00641 -4034.06709 -4031.23656 -4029.01590 -4040.47531 -4037.97442 -4025.65413 -4021.62399 -4013.90090 -4010.55992 -3999.36605 -4019.57940 -4027.41928 -4029.30181 -4030.66448 -4026.73835 -4027.67623 -4009.22251 -3918.73334 -3432.08274 -2618.49762 -1580.18397 -740.06334 -342.30087 -246.83020 -220.09750 -189.25959 -123.64231 -93.00372 -86.62607 45.82392 297.10981 624.02176 849.13739 1012.31969 1043.08433 1076.17264 1101.08135 1096.34786 1067.74453 1018.63410 931.54560 857.53909 697.10446 789.14478 827.54331 852.98152 863.09408 834.80071 709.00562 589.98362 434.15135 349.61165 352.92300 321.36557 315.98129 308.80313 312.91300 290.84760 248.91583 213.46115 190.96785 145.69414 132.54239 127.89498 105.14305 69.97241 51.90324 55.87969 56.75076 58.36757 69.87736 105.87892 156.13978 178.81327 169.03907 188.56850 193.81421 203.09422 184.84691 153.43098 114.81561 81.63094 52.52724 13.00333 13.34337 -11.29698 -29.99667 -21.77109 -80.26378 -65.24008 -90.50163 -108.71493 -125.53552 -131.66591 -175.59844 -161.01432 -186.68333 -177.71522 -218.20969 -434.26230 -602.97371 -1429.75873 -2230.03920 -3325.80817 -3791.47654 -3946.98554 -3966.66357 -3971.66072 -3961.89738 -3954.24165 -3958.64111 -3955.86913 -3950.56175 -3952.19662 -3944.52720 -3950.91296 -3943.94107 -3941.12652 -3937.65085 -3943.39040 -3943.27779 -3944.21128 -3947.78634 -3961.50454 -3970.26959 -3993.42924 -3988.34134
-4035.37468 -4040.81119 -4034.58816 -4035.83654 -4040.15780 -4034.68414 -4037.17777 -4034.03991 -4031.40874 -4038.57991 -4040.74897 -4043.56806 -4036.11725 -4037.57843 -4046.15663 -4034.81946 -4038.56357 -4038.48438 -4043.48139 -4045.66068 -4042.87143 -4035.39762 -4041.06428 -4036.52197 -4035.57513 -4034.71334 -4041.28822 -4036.15452 -4031.79840 -4029.08075 -4033.95427 -4032.52045 -4022.71751 -3988.35314 -3775.19272 -2972.76689 -2122.09143 -1095.11746 -414.31176 -267.29673 -226.66617 -194.23638 -137.56235 -92.33760 -78.32731 -22.86271 244.99950 468.93715 729.71839 924.24215 990.73179 1030.04706 1054.41095 1006.33127 975.39726 928.39523 863.60053 554.88909 546.05004 559.75144 641.17338 790.27475 850.24625 860.43462 777.15281 692.22489 599.06265 485.61606 355.94869 341.47220 318.60027 312.49072 296.74913 284.94277 243.95943 212.78047 191.85065 157.23188 130.62746 101.65750 72.44487 60.57288 59.65477 53.62919 54.74026 65.84599 81.72160 137.30693 180.69605 197.26228 160.11122 153.68124 164.69043 153.16437 122.28073 102.10620 65.21176 58.69753 27.30239 -28.08199 -36.07264 -41.66251 -48.44175 -94.72215 -118.11343 -118.21871 -118.19363 -142.06116 -162.30235 -195.72978 -213.87179 -290.29018 -299.32924 -336.22903 -598.36119 -739.26100 -1141.78627 -2219.06757 -2513.66142 -3552.53357 -3877.81993 -3960.01341 -3960.76889 -3965.30056 -3960.90739 -3956.12360 -3948.43358 -3956.63304 -3954.95326 -3948.21852 -3946.41670 -3941.06613 -3938.70879 -3943.44306 -3936.89193 -3934.60650 -3937.43294 -3941.81985 -3950.93682 -3952.00318 -3974.48142 -3995.40740 -3988.54334
-4042.48795 -4046.32954 -4043.74414 -4044.72980 -4039.23537 -4039.74921 -4041.83949 -4044.07497 -4041.29336 -4039.86115 -4038.87390 -4030.46173 -4040.40152 -4038.51460 -4040.30876 -4037.68087 -4045.03821 -4045.21283 -4043.01846 -4045.73195 -4050.00745 -4045.24295 -4046.13835 -4039.30437 -4049.58509 -4041.40511 -4040.19300 -4041.16426 -4034.42013 -4041.65709 -4034.07723 -4032.74237 -4027.00338 -4008.58271 -3889.45173 -3392.51359 -2649.55870 -1412.81547 -710.86899 -276.43357 -237.74486 -202.19053 -167.85235 -151.82006 -90.60395 -10.38410 12.73575 308.35269 781.77166 925.22057 977.22876 996.93586 997.70127 935.99713 774.17244 651.77109 573.14599 378.60262 286.84176 271.22596 490.20825 637.51920 792.01456 869.70804 886.60007 822.50799 757.26951 609.45109 513.76707 396.02498 349.27701 311.28878 306.04554 277.21267 259.17613 206.93660 160.52762 137.76809 114.35162 101.03978 65.32173 56.88039 57.80847 52.92144 52.88486 69.81872 76.94830 146.42306 219.49770 217.16540 159.04872 128.45289 106.72088 121.21981 101.93631 81.44296 58.99843 21.32261 -7.71329 -39.25889 -38.28510 -57.35016 -87.90717 -129.87509 -147.42949 -170.84750 -211.47642 -224.80655 -249.26632 -245.45126 -292.52341 -638.97064 -977.07632 -1035.06249 -1327.60526 -1785.10507 -2273.08876 -2529.37761 -3333.77844 -3750.71273 -3932.69488 -3962.19958 -3962.79242 -3963.09847 -3958.84134 -3953.05716 -3958.53134 -3948.84790 -3946.49860 -3948.61701 -3946.30261 -3938.51820 -3937.96099 -3939.96682 -3940.05655 -3934.18026 -3932.36067 -3942.98456 -3947.88295 -3953.53158 -3965.20392 -3991.71255 -3998.00218
-4036.34081 -4048.71157 -4045.07911 -4041.72692 -4041.62096 -4036.91465 -4042.15916 -4040.07193 -4037.68686 -4049.88656 -4045.00407 -4045.55235 -4046.62605 -4042.09884 -4042.82867 -4051.56231 -4046.02008 -4050.27620 -4053.66914 -4047.29044 -4050.94724 -4047.47365 -4053.10604 -4053.81249 -4053.55872 -4049.57035 -4054.03125 -4045.90100 -4048.78524 -4045.18633 -4052.58528 -4046.48060 -4040.02957 -4029.69008 -3915.97751 -3539.88675 -3075.30041 -1712.69149 -919.25820 -280.20301 -255.69131 -230.71592 -172.21509 -123.35263 -72.54271 -59.05388 -17.78591 330.37727 523.26176 783.64811 948.04731 902.55107 893.42671 862.63340 599.90792 376.91812 234.16801 160.50337 75.25870 102.78885 338.29702 494.03747 726.59830 848.04517 902.78188 919.20015 910.25539 842.17016 694.39717 569.18094 405.94174 353.03108 304.17795 307.72499 265.32555 226.28209 165.25552 137.44661 119.03323 88.63851 61.72620 63.19622 60.63869 57.60769 54.49948 59.97960 77.73225 128.41204 209.65122 202.60671 130.58533 110.06861 114.93707 103.36858 84.93797 76.05266 17.99164 -2.58230 -30.03534 -47.98357 -88.45546 -135.21531 -118.62628 -158.01320 -174.66938 -253.71243 -283.31270 -383.12703 -608.71081 -789.16847 -1213.15283 -1456.38237 -1801.27561 -2128.38871 -2493.61250 -2873.72830 -3000.44037 -3494.77969 -3726.65289 -3876.43090 -3947.42115 -3962.81044 -3962.25987 -3959.43021 -3957.10877 -3959.93575 -3952.99665 -3947.96035 -3948.69589 -3945.97438 -3942.44329 -3934.22354 -3936.41895 -3933.55915 -3927.97246 -3935.04425 -3934.60732 -3941.33414 -3943.52346 -3962.86950 -3974.34696 -3995.04055 -4000.49389
-4049.77509 -4038.83454 -4048.07973 -4050.60837 -4042.06118 -4047.17225 -4052.32218 -4045.87470 -4044.45960 -4052.34651 -4050.04525 -4043.90816 -4049.34291 -4043.26627 -4048.55368 -4056.63213 -4054.73628 -4051.15652 -4055.33109 -4055.74916 -4056.55170 -4061.72876 -4058.96494 -4064.94166 -4055.58279 -4064.10992 -4061.57298 -4061.46368 -4056.88626 -4052.76909 -4057.92871 -4049.67559 -4052.70913 -4045.08756 -4012.69300 -3877.64861 -3094.87508 -2050.89704 -1010.75966 -422.63041 -246.02857 -201.75718 -162.47917 -146.15452 -71.19588 -69.70806 -44.10230 173.66005 423.72597 759.04385 872.58022 722.96534 685.93160 476.57415 325.45022 220.57142 21.35334 56.62619 41.81734 49.33972 211.02452 315.87483 615.28276 778.53094 894.56445 957.86184 989.94571 971.70967 817.77339 668.33563 528.53712 398.99116 401.54071 327.64181 284.13680 244.48712 181.81241 137.06760 124.65795 74.10011 71.86989 73.54407 64.09433 49.90455 59.57784 60.63475 73.36212 111.98601 205.03061 206.51593 127.11214 110.83544 104.83662 86.07651 83.62373 56.83160 6.37495 -16.76482 -47.31029 -94.32236 -149.15119 -138.52926 -181.95524 -239.77011 -270.04295 -455.30681 -593.36830 -961.62723 -1403.19223 -1489.21376 -2084.51512 -2658.97575 -2754.72132 -3140.39969 -3299.25418 -3406.46861 -3700.48662 -3854.81468 -3906.62110 -3945.53918 -3959.29639 -3964.82714 -3963.45022 -3959.85675 -3954.52439 -3952.59626 -3956.75362 -3945.26097 -3947.17831 -3941.76332 -3941.01065 -3937.92387 -3939.32299 -3936.65530 -3930.09162 -3929.99951 -3931.61598 -3941.64509 -3951.17073 -3963.02375 -3981.11664 -4005.64043 -4006.46916
-4044.69560 -4047.42378 -4044.36051 -4042.70242 -4044.42725 -4049.29539 -4051.54321 -4044.60194 -4047.79087 -4052.64365 -4052.27935 -4055.68406 -4050.26913 -4051.55053 -4057.73853 -4060.17236 -4055.03213 -4065.12964 -4064.95807 -4063.80312 -4067.58441 -4063.39672 -4069.68278 -4067.14076 -4063.01860 -4063.07358 -4066.79009 -4070.23406 -4070.69917 -4069.99789 -4067.88044 -4060.91823 -4058.72557 -4058.30996 -4038.45021 -3879.72928 -3531.11785 -2340.09003 -1212.79937 -513.20237 -270.02567 -203.89592 -169.92598 -136.09834 -88.10684 -54.01056 14.57553 197.99736 470.61521 607.69247 710.01402 470.25919 318.03050 235.09180 92.36384 -50.17001 -48.78338 -4.40134 1.72376 31.12726 139.30345 265.77090 509.23161 677.22398 825.60000 942.65712 961.89067 1000.36774 954.01481 832.90658 680.95730 565.12753 499.56579 359.26017 299.23843 258.83289 198.29412 164.36893 144.24316 95.91058 67.21978 66.99047 71.25042 55.35342 50.81806 57.05918 61.04826 90.65707 187.58743 199.36574 107.34204 99.29688 93.67467 88.42432 71.54636 48.93390 5.01309 -54.72213 -101.03291 -153.58407 -201.06597 -219.59270 -280.41513 -423.05309 -596.10170 -1029.10419 -1433.54987 -2187.17629 -2363.47259 -2864.44187 -3197.21903 -3123.07368 -3568.36727 -3434.13798 -3881.96593 -3872.33364 -3939.10119 -3949.72768 -3955.85962 -3961.03566 -3957.01563 -3960.11096 -3957.47045 -3952.49479 -3950.16069 -3950.31760 -3939.11555 -3946.37604 -3944.91858 -3945.79213 -3946.48953 -3937.02157 -3932.91858 -3936.99262 -3943.97128 -3932.53356 -3938.14371 -3944.53472 -3945.64984 -3964.36056 -3975.52064 -4004.75869 -4004.36567
-4052.87064 -4049.12814 -4048.28353 -4048.46764 -4039.30598 -4051.37995 -4054.01268 -4056.53801 -4051.75332 -4057.24776 -4058.04143 -4052.24541 -4057.96237 -4058.23812 -4062.49816 -4069.23379 -4068.23285 -4068.49295 -4065.83622 -4077.12552 -4076.09784 -4078.49454 -4082.78759 -4082.73114 -4078.42741 -4085.40249 -4079.19524 -4083.15301 -4080.45764 -4076.53629 -4081.76393 -4083.13344 -4080.06783 -4070.43270 -4060.42693 -3970.83563 -3559.37117 -2869.35288 -1766.81486 -902.28445 -356.59600 -217.56384 -181.24689 -125.89796 -50.61109 25.84925 81.21538 247.32459 433.03126 544.10569 345.90270 227.91003 93.01901 -54.09013 -55.56570 -62.24869 -58.61448 -17.05474 -33.28018 18.00144 80.39806 141.54939 380.06878 556.22184 705.55885 842.76253 906.43539 959.11161 950.86531 907.01898 855.31992 727.01951 663.04223 474.07603 388.93754 267.29947 204.40137 171.81573 123.77126 75.58742 73.09756 68.91077 68.51306 57.16013 55.47082 55.97755 58.53684 60.92436 105.03128 137.45780 117.28587 84.51223 62.09524 69.88270 37.62106 -5.52131 -20.19611 -74.71420 -133.14041 -194.57456 -224.29238 -426.12726 -563.12687 -809.09789 -1736.69342 -2232.91605 -2422.72522 -2719.13040 -3085.67758 -3475.16179 -3753.83045 -3792.92662 -3896.96999 -3910.03192 -3967.28562 -3953.40659 -3962.17851 -3964.66683 -3968.41146 -3958.94000 -3956.64004 -3953.82930 -3955.35220 -3960.22407 -3942.75065 -3943.49263 -3942.33759 -3942.02446 -3950.05792 -3949.33308 -3944.64127 -3949.22375 -3949.81573 -3945.15824 -3942.62029 -3937.75302 -3945.32160 -3947.26928 -3961.74808 -3966.94539 -3985.39408 -4007.26538 -4005.18036
-4046.16600 -4046.43784 -4049.55285 -4053.66672 -4050.84688 -4056.57602 -4055.10539 -4053.57209 -4054.29320 -4066.81868 -4056.78263 -4061.13721 -4068.94882 -4065.75244 -4086.75403 -4075.78045 -4069.74624 -4084.04562 -4089.98099 -4084.95720 -4086.62697 -4086.24003 -4092.21163 -4094.80509 -4092.58943 -4093.06478 -4090.82667 -4090.42671 -4094.99770 -4086.02859 -4089.55730 -4082.26005 -4075.56284 -4081.84046 -4076.10003 -4018.89785 -3810.65642 -3065.21536 -2036.83808 -1400.65443 -629.12915 -309.87200 -203.15411 -112.55330 -9.36808 103.35002 145.96784 253.90001 310.76127 265.03483 135.60760 74.73394 -100.44722 -84.05957 -54.60806 -60.69704 -72.12906 -49.60159 -29.88026 -11.27582 42.93039 133.65435 254.95170 375.62280 579.36275 711.81795 842.41663 892.23912 920.77047 911.34245 888.74581 819.13508 710.27914 596.91435 453.24667 288.36758 206.13194 143.35815 132.54816 75.01015 77.69305 74.39860 58.22130 54.22205 49.01818 57.67239 54.65414 57.68016 69.29845 74.31046 63.65999 55.46396 59.44198 39.97181 32.53250 -17.62676 -38.17264 -107.62166 -162.72315 -268.39406 -544.17271 -1002.21224 -1632.23993 -2239.14225 -2874.50866 -3051.42683 -3490.24276 -3683.18281 -3766.74420 -3873.90527 -3896.43086 -3960.42747 -3966.18302 -3959.33856 -3963.06190 -3973.95669 -3968.15735 -3957.98603 -3959.35894 -3959.55882 -3959.50928 -3948.73531 -3951.12416 -3951.35457 -3947.40980 -3949.19809 -3953.28548 -3952.32430 -3949.20459 -3944.59011 -3952.30757 -3962.69879 -3949.14762 -3957.42465 -3949.64543 -3953.33061 -3947.52020 -3962.27680 -3962.34311 -3977.85144 -3987.58772 -4005.31179 -4007.10486
-4060.57713 -4054.70988 -4052.24217 -4055.46165 -4066.38246 -4066.55393 -4065.70276 -4065.22348 -4069.52090 -4068.37685 -4065.92777 -4082.52004 -4065.74989 -4070.13595 -4075.86566 -4082.76165 -4083.26220 -4084.60917 -4095.87160 -4087.37905 -4082.51696 -4093.20900 -4094.24547 -4098.31823 -4093.64717 -4102.01242 -4102.77786 -4094.42467 -4094.40153 -4099.90339 -4098.75502 -4095.15906 -4095.20907 -4089.58599 -4092.74331 -4059.62868 -3926.25173 -3456.12748 -2745.55724 -1693.95792 -1098.97879 -480.37364 -267.03005 -160.40348 -66.09705 74.63551 111.68483 162.14901 139.86202 110.03884 18.86452 -99.55015 -121.53045 -117.94440 -76.51297 -82.17041 -71.48513 -76.19907 -34.01237 -21.65452 47.44020 94.35861 154.33520 260.83325 447.14983 564.18093 669.40928 739.35957 824.78139 884.75693 845.10881 806.44076 777.43892 671.14323 496.16869 306.52077 194.70598 130.09178 123.89975 84.03965 82.30121 81.42702 58.88172 52.57794 46.21569 56.39895 59.52115 51.96743 45.56928 48.08950 34.27250 35.36873 23.86881 3.52201 -26.20160 -60.12407 -73.53228 -144.94050 -282.59024 -374.72078 -1198.91880 -2076.10108 -2791.48410 -3021.73997 -3511.08692 -3781.12003 -3879.73395 -3880.80383 -3932.11749 -3975.91132 -3976.53383 -3966.36978 -3970.41203 -3969.27046 -3976.86551 -3964.49735 -3968.05955 -3954.90637 -3962.58962 -3950.77939 -3955.37021 -3951.09715 -3948.48498 -3945.10732 -3944.69834 -3953.51668 -3956.06466 -3953.39115 -3966.24688 -3962.24426 -3960.85793 -3961.91386 -3959.21473 -3963.40332 -3962.39943 -3960.35021 -3961.22224 -3957.57581 -3967.17718 -3976.41750 -3984.10212 -4012.91242 -4007.62221
-4054.38859 -4055.47530 -4054.08442 -4061.48518 -4058.31537 -4059.42643 -4066.00992 -4073.42801 -4075.67116 -4079.83184 -4079.19986 -4079.60959 -4088.14016 -4084.55098 -4089.36231 -4084.69178 -4085.17980 -4096.35468 -4099.44019 -4095.86852 -4094.63757 -4101.19873 -4096.75613 -4096.50208 -4092.35540 -4103.19296 -4103.75936 -4107.71830 -4109.50455 -4108.12968 -4104.63098 -4103.20031 -4096.53623 -4101.00728 -4098.30634 -4084.44496 -4025.78319 -3792.73578 -3442.99868 -2145.26847 -1481.48457 -861.60275 -589.29118 -286.88638 -237.38349 -99.20213 -28.23552 62.86532 42.96913 -54.70273 -88.91968 -145.64635 -149.11901 -123.51854 -102.01611 -85.79728 -86.59026 -96.08938 -74.40597 -29.80191 11.99700 52.34929 93.12719 159.78594 238.14569 461.55804 418.18638 568.73722 631.47017 733.07550 781.88162 750.95336 721.50679 613.26853 414.70622 240.57325 162.74260 142.31507 118.84442 87.57644 90.47814 87.55443 52.06093 47.56525 45.69700 52.26568 51.12558 40.69000 44.63540 40.65221 19.49419 11.98146 24.83064 3.75542 -15.79189 -77.14929 -124.88356 -178.96807 -407.30674 -1100.65727 -2166.86258 -2922.89132 -3594.38580 -3683.20326 -3908.14692 -3960.24395 -3975.97780 -3972.50819 -3978.33570 -3976.58513 -3971.35048 -3972.53400 -3966.58536 -3969.08357 -3959.21632 -3959.52859 -3952.56848 -3955.65126 -3954.44464 -3954.78609 -3954.30066 -3945.79274 -3956.25128 -3952.25584 -3953.76786 -3951.80630 -3959.05158 -3970.10672 -3957.51689 -3968.50748 -3984.00559 -3985.04815 -3985.38264 -3990.24169 -3982.45486 -3984.11971 -3978.89346 -3971.36682 -3974.86344 -3978.31454 -3987.56464 -4008.11121 -4009.38838
-4066.66483 -4058.93459 -4067.99509 -4069.41669 -4064.09422 -4074.35386 -4076.54325 -4078.67995 -4075.91762 -4078.67628 -4089.08594 -4087.95565 -4090.88822 -4097.99285 -4094.27069 -4090.78638 -4099.82212 -4096.44174 -4103.65274 -4100.40094 -4104.31710 -4103.13558 -4103.27007 -4104.16323 -4105.36273 -4109.17782 -4111.53885 -4100.55683 -4108.23548 -4108.87272 -4107.34152 -4104.49147 -4101.84327 -4106.14767 -4100.47917 -4091.68965 -4084.30371 -3985.70373 -3545.82013 -3264.06684 -2309.54565 -1919.01754 -1156.97810 -1048.68730 -930.09197 -396.65973 -250.71740 -112.13411 -65.16539 -117.41487 -150.11500 -191.22496 -216.65667 -180.81569 -130.66497 -139.31426 -140.84471 -118.15759 -118.96190 -55.28087 -39.97619 9.20141 62.97176 135.85941 135.17157 169.18966 248.09939 420.80572 428.95713 509.76658 543.19055 570.85925 468.61744 460.78923 352.36040 209.91989 139.67076 128.33831 110.60796 96.90388 102.58142 89.43568 75.45579 55.25541 42.29250 50.14448 36.43245 36.43034 38.22496 19.75375 21.60658 6.23506 -2.62218 -31.50159 -45.91652 -108.64529 -144.49322 -300.68234 -625.94587 -1865.76952 -2864.29031 -3257.25090 -3631.87268 -3779.58094 -3883.56064 -3925.58678 -3974.27290 -3977.28532 -3974.85573 -3979.93961 -3965.80180 -3965.24439 -3963.73084 -3968.80913 -3965.83776 -3956.86497 -3954.54894 -3959.98391 -3946.94195 -3953.72032 -3961.87238 -3954.21285 -3950.61648 -3953.99712 -3958.03383 -3961.97500 -3974.98155 -3973.86821 -3990.65280 -3998.83652 -3999.97365 -4005.74589 -4005.36489 -4015.48460 -4006.15477 -4010.01318 -3984.63999 -3983.57454 -3975.72579 -3981.94678 -3983.73608 -3993.26139 -3996.66853
-4075.28741 -4069.02460 -4074.87175 -4078.95764 -4070.41917 -4075.43640 -4080.36384 -4087.77884 -4095.67070 -4096.07735 -4102.20879 -4095.57923 -4099.38035 -4107.61001 -4097.16147 -4104.67668 -4110.47713 -4110.27834 -4104.97577 -4109.73303 -4103.65440 -4110.36002 -4110.98620 -4109.18031 -4111.51129 -4100.25168 -4103.51772 -4109.22647 -4110.72395 -4100.64625 -4109.96865 -4110.03634 -4108.32761 -4109.82900 -4099.26038 -4101.47061 -4098.03285 -4037.78929 -3884.88384 -3691.29388 -3423.75775 -3057.69847 -2335.95586 -2188.33857 -1494.11857 -972.99550 -467.19564 -270.56919 -238.22170 -209.38430 -208.59548 -248.34988 -254.02602 -242.07734 -225.62242 -189.35270 -187.94336 -184.52079 -119.67643 -82.80554 -74.86157 -46.87086 -4.90764 43.06775 39.27196 109.95559 187.75331 242.80850 244.37995 286.46179 304.57241 305.60524 239.49798 212.90843 192.30738 160.00996 139.60052 117.30449 93.10060 96.42398 95.75570 95.84534 68.13148 55.31359 45.47467 36.70572 35.88098 31.63412 26.91410 17.64543 12.21906 -3.70510 -32.22458 -62.19203 -90.61580 -142.46400 -258.48417 -776.27624 -1490.41294 -2428.85467 -3167.69488 -3508.33481 -3663.09070 -3786.61566 -3865.96766 -3939.94347 -3960.33781 -3976.83609 -3972.93032 -3968.34631 -3968.90332 -3961.04571 -3962.54709 -3960.74485 -3961.20882 -3960.98867 -3957.70320 -3956.66885 -3957.24443 -3955.16441 -3953.44881 -3950.41445 -3956.57071 -3954.51705 -3971.99083 -3975.12904 -3986.22962 -4000.33271 -4008.79999 -4018.31437 -4024.61978 -4031.24199 -4040.12564 -4043.96662 -4044.11759 -4019.48525 -4014.77136 -3987.01948 -3991.36881 -3977.75454 -3972.73837 -3977.46457 -3986.81272
-4072.40477 -4075.06756 -4078.67501 -4078.69863 -4082.09085 -4092.69953 -4092.80095 -4098.23277 -4095.47306 -4105.74585 -4107.84273 -4111.44547 -4114.54568 -4106.18154 -4112.14559 -4107.10149 -4106.49982 -4122.54558 -4112.85630 -4113.51305 -4115.70680 -4117.63562 -4111.90073 -4109.52929 -4116.17572 -4117.67876 -4109.34323 -4108.04310 -4106.28877 -4113.02241 -4112.89410 -4109.91684 -4107.94071 -4112.98995 -4097.83024 -4106.05727 -4107.16166 -4103.95619 -4066.27322 -4023.05480 -3858.44976 -3745.53917 -3407.91847 -3092.77259 -2666.05116 -1962.75454 -1046.45922 -584.82319 -409.51303 -440.92549 -335.27531 -279.52106 -269.50719 -266.88512 -257.22500 -255.91948 -222.12665 -213.92383 -152.03422 -134.75996 -95.67584 -71.16434 -31.99774 0.54537 1.34020 86.21841 150.33433 155.78914 178.27575 177.48523 185.35347 176.91934 156.55747 132.14088 138.90567 123.02285 124.91630 107.12730 98.73283 99.43921 94.55301 97.07026 59.58958 45.59912 34.05840 32.73625 28.47835 8.54710 5.77391 9.20763 -2.22499 -19.19540 -53.94490 -80.89218 -108.57354 -165.02902 -352.98714 -966.60354 -1947.53835 -2649.07844 -3242.11612 -3486.01661 -3657.15468 -3831.57160 -3901.39520 -3959.97867 -3964.93715 -3971.01864 -3963.71801 -3967.98466 -3966.80590 -3957.14546 -3966.63814 -3963.55742 -3956.21301 -3957.29751 -3946.13920 -3955.84316 -3952.74502 -3954.42828 -3957.68641 -3956.64028 -3964.45686 -3974.53537 -3974.24285 -3991.26381 -4001.77722 -4019.75758 -4028.43796 -4046.40642 -4047.19408 -4069.27568 -4068.46292 -4052.32699 -4056.67170 -4042.05156 -4028.16193 -3997.59096 -3984.29853 -3967.86195 -3963.43186 -3961.93813 -3957.75850
-4080.04646 -4087.83828 -4088.97315 -4082.96769 -4103.64970 -4102.75497 -4103.51504 -4118.63894 -4118.96605 -4126.54168 -4122.07062 -4124.56168 -4115.72858 -4124.39550 -4128.38223 -4127.96794 -4129.74283 -4123.38450 -4127.90408 -4122.04478 -4122.89140 -4120.91628 -4129.51728 -4119.67811 -4115.26878 -4123.47036 -4118.73016 -4121.10149 -4118.57018 -4118.62315 -4124.69039 -4114.90850 -4119.17462 -4109.56729 -4112.82642 -4108.29601 -4113.56493 -4113.35392 -4103.96650 -4105.67641 -4035.66059 -4017.58139 -3862.70615 -3745.87150 -3439.61721 -2263.75026 -1997.86968 -1308.88471 -793.08444 -772.46298 -418.21332 -318.39601 -316.38065 -313.46646 -289.10835 -285.80827 -274.46871 -266.54237 -246.61142 -171.94158 -112.78629 -88.23403 -64.12000 -39.87567 18.81275 71.46783 125.04132 140.88851 155.99213 146.26992 135.62345 124.23508 123.72887 122.29834 127.49755 113.16395 101.52740 104.96514 95.19763 98.15854 96.92926 93.55825 58.11885 35.83049 28.58794 29.89671 20.43464 11.98974 -1.55099 -5.83056 -23.25744 -37.44182 -61.52871 -116.74692 -147.98222 -193.86492 -764.09663 -1340.58744 -2273.25225 -2730.13874 -3343.07244 -3588.72379 -3863.46235 -3925.53027 -3946.06965 -3967.35195 -3970.57179 -3970.67097 -3961.93568 -3956.47841 -3960.60601 -3954.04403 -3950.33909 -3957.78477 -3952.99171 -3946.61929 -3953.01678 -3955.77005 -3962.73728 -3955.30347 -3961.62912 -3966.11181 -3967.62212 -3983.09011 -4000.18576 -4006.94238 -4032.83905 -4048.78048 -4068.35979 -4075.28101 -4088.47958 -4093.00273 -4093.69674 -4086.66349 -4067.70002 -4055.31608 -4025.27952 -4004.99554 -3974.25975 -3958.62915 -3947.38240 -3937.39966 -3935.46624
-4092.08890 -4096.15000 -4099.14965 -4106.51647 -4107.81765 -4115.47338 -4139.26592 -4134.15077 -4136.93900 -4143.49161 -4138.03292 -4154.57900 -4146.31641 -4151.01676 -4144.80781 -4151.71468 -4140.52212 -4144.54959 -4152.18593 -4149.38766 -4153.66419 -4144.20801 -4147.68669 -4150.72778 -4141.18748 -4148.51676 -4149.18809 -4135.28436 -4140.68883 -4135.87232 -4140.86203 -4134.77834 -4123.24765 -4130.32920 -4120.83023 -4139.14032 -4123.45910 -4126.13801 -4132.08694 -4125.03262 -4121.70794 -4105.44556 -4113.32084 -4074.64478 -3759.82013 -3300.57609 -2959.48786 -2043.67598 -1700.20613 -1298.37601 -967.39853 -392.54839 -545.72960 -520.51268 -349.66186 -389.43496 -396.00426 -537.22524 -403.76381 -239.30100 -165.61184 -113.91310 -99.15084 -62.18344 11.83105 76.82950 103.01773 116.28089 128.17155 124.87212 111.03821 128.06218 122.24745 110.83643 114.54926 111.16001 97.42656 91.73509 86.16440 87.83035 67.99894 63.67492 41.67919 22.37286 22.32559 8.28156 14.03924 2.03014 -4.85044 -7.24387 -32.21715 -65.96508 -81.32570 -109.71665 -191.33064 -355.28731 -969.69306 -1596.48631 -2411.72805 -3054.45021 -3514.16208 -3816.99049 -3934.65505 -3955.04342 -3967.04684 -3972.94223 -3960.77636 -3958.54094 -3957.48034 -3952.85052 -3947.49571 -3952.17912 -3949.06318 -3951.13034 -3956.57454 -3955.28651 -3949.99998 -3954.95183 -3963.98057 -3958.67080 -3975.31012 -3979.78925 -3986.23659 -4001.51496 -4011.78541 -4035.62033 -4054.74065 -4070.03299 -4090.73647 -4105.32726 -4107.10528 -4121.22670 -4112.58103 -4100.14267 -4082.03723 -4056.61551 -4036.24236 -4003.51554 -3956.78444 -3930.41803 -3918.24975 -3904.86076 -3903.37881
-4105.11938 -4109.64424 -4118.84302 -4123.52682 -4139.94716 -4140.68619 -4152.92169 -4174.13936 -4172.37903 -4186.19626 -4197.12360 -4179.16992 -4188.44098 -4187.85272 -4170.48275 -4178.89099 -4177.98225 -4187.68455 -4187.32266 -4173.48098 -4171.05618 -4174.17824 -4178.12246 -4179.43216 -4181.66624 -4186.63410 -4183.28350 -4185.18945 -4170.14592 -4178.10005 -4184.03101 -4168.32273 -4166.19762 -4165.41849 -4164.52263 -4157.40996 -4159.65626 -4152.59409 -4172.75540 -4168.26478 -4165.59523 -4144.37958 -4147.27768 -4106.94134 -4089.67684 -3767.94882 -3590.53354 -3280.20066 -2818.56233 -2255.43390 -1834.95091 -1301.57526 -1111.92576 -1152.35213 -738.39891 -562.41202 -962.36313 -886.61380 -964.40452 -596.64457 -331.83178 -186.43792 -131.21041 -108.81984 3.09664 46.51075 69.97333 104.76083 103.18440 108.47212 114.91359 115.60967 104.17681 104.51429 100.89963 92.99551 84.43448 73.01058 79.69702 74.23595 62.40647 52.67005 31.50583 15.11246 -3.49628 -6.83964 -0.16142 -2.53823 -12.65559 -11.73837 -35.80090 -60.01760 -87.95960 -152.75502 -192.99428 -442.63738 -1130.97275 -1786.92092 -2936.87091 -3415.60492 -3802.82107 -3939.11465 -3969.93259 -3967.12825 -3964.60745 -3963.15027 -3961.93596 -3951.06142 -3956.09125 -3945.95558 -3948.11555 -3952.32170 -3945.68237 -3954.63608 -3951.35987 -3952.29296 -3960.26447 -3958.95236 -3961.45445 -3964.59804 -3980.92351 -3993.09834 -4007.04414 -4023.44561 -4041.71995 -4063.56409 -4084.12167 -4096.53966 -4116.33050 -4129.86870 -4134.54973 -4136.75588 -4121.80568 -4110.00415 -4079.78606 -4051.78071 -4029.60349 -3968.86509 -3940.01568 -3906.44814 -3884.87208 -3874.15053 -3867.85783
-4131.77705 -4130.23172 -4141.03024 -4160.38763 -4156.99571 -4178.29658 -4195.01810 -4204.64061 -4203.67837 -4221.61811 -4236.45766 -4230.31373 -4228.93694 -4219.51729 -4227.11531 -4220.75983 -4224.32656 -4225.00625 -4221.10738 -4221.76245 -4216.32551 -4237.38083 -4222.51980 -4229.27302 -4241.64493 -4231.38003 -4225.29386 -4225.16822 -4244.22359 -4216.39641 -4230.69251 -4211.55877 -4213.04439 -4235.74994 -4215.33353 -4206.00211 -4206.23844 -4209.54811 -4191.45533 -4203.88070 -4196.30705 -4201.01464 -4169.32764 -4174.93206 -4147.39038 -4097.24415 -4058.91692 -3879.85788 -3552.24102 -3141.93228 -2863.02213 -2724.20563 -2559.52523 -2420.99700 -1900.03445 -2268.62112 -2232.75026 -2349.15996 -1670.09231 -1201.33018 -652.57498 -573.73704 -411.54883 -162.97659 -88.12150 -28.13578 -8.76327 70.92703 67.43215 96.51070 99.45149 96.50567 90.89578 87.51235 76.83936 78.34542 64.85795 62.66777 55.86449 55.41729 50.47378 33.21910 17.30534 4.58429 -18.96575 -17.52245 -23.31222 -26.18446 -37.33649 -34.81614 -42.68276 -43.57037 -49.45022 -108.81946 -177.41017 -296.62504 -1002.20669 -2367.80723 -3217.35295 -3569.36341 -3868.78792 -3946.25672 -3972.38488 -3962.65598 -3966.01471 -3957.48372 -3955.69856 -3950.98426 -3946.55611 -3947.58249 -3942.08222 -3935.99960 -3945.83360 -3943.30918 -3949.35711 -3962.60935 -3956.51619 -3967.60735 -3976.99629 -3978.95020 -3985.99144 -4017.37979 -4024.78953 -4047.58104 -4064.10032 -4092.93987 -4107.80619 -4119.39677 -4136.04699 -4138.58233 -4144.21270 -4141.09203 -4127.07956 -4093.13431 -4067.63571 -4030.94741 -3993.80968 -3950.49967 -3907.85059 -3878.58115 -3848.89883 -3835.03013 -3841.13719
-4158.67242 -4160.21864 -4174.74530 -4187.65613 -4215.52602 -4227.73552 -4234.62898 -4237.97445 -4247.56230 -4273.52062 -4286.25682 -4286.76982 -4289.54606 -4301.65082 -4306.41018 -4288.89868 -4289.32727 -4275.40020 -4279.01830 -4264.71100 -4278.38011 -4273.76465 -4296.27896 -4300.98816 -4296.87577 -4282.76779 -4287.36828 -4305.29255 -4289.84448 -4291.16035 -4280.04895 -4299.07937 -4272.22043 -4273.40542 -4266.68972 -4264.58291 -4251.75075 -4249.55128 -4272.65685 -4251.00184 -4226.97388 -4248.76954 -4229.38725 -4223.75077 -4213.32166 -4189.08980 -4170.88130 -4139.57404 -4075.98855 -3792.79829 -3711.21167 -3524.72435 -3374.43797 -3290.62802 -2732.58423 -3031.00908 -3143.19769 -3093.69293 -2793.03521 -2677.23318 -1768.13581 -1339.26607 -1136.93120 -332.80890 -141.63708 -78.49380 5.88903 1.16050 68.34220 102.34222 94.46644 93.28486 87.20367 66.87419 62.48650 64.80157 55.05402 43.23548 50.32338 31.89412 17.97561 -2.59950 -3.49964 -25.71003 -22.32797 -33.91431 -34.93363 -29.17872 -26.75518 -37.69996 -32.91854 -38.67534 -41.14895 -59.32871 -101.52113 -194.73974 -1185.26859 -2484.21957 -3372.34589 -3634.43981 -3859.79540 -3947.76532 -3964.50932 -3966.82560 -3959.15258 -3956.93973 -3953.11384 -3954.90716 -3947.58663 -3945.40834 -3939.96161 -3941.06796 -3937.81337 -3948.38231 -3956.49658 -3956.16985 -3968.17229 -3973.66590 -3985.19891 -4004.16691 -4018.93639 -4035.67521 -4057.62563 -4078.68437 -4085.40994 -4110.52493 -4130.25489 -4140.80797 -4150.82201 -4144.80597 -4141.18193 -4127.18491 -4101.86602 -4074.90598 -4030.32911 -3996.29290 -3968.98395 -3896.05439 -3870.33558 -3839.86279 -3819.79376 -3806.47951 -3806.40768
-4193.94689 -4201.43501 -4224.67360 -4228.36087 -4266.36123 -4288.35720 -4297.42250 -4316.37305 -4318.51872 -4337.45242 -4343.70518 -4337.40760 -4328.52792 -4352.14184 -4339.49035 -4341.81821 -4349.65594 -4318.61938 -4352.79921 -4371.69757 -4334.44059 -4335.44250 -4351.90094 -4341.28316 -4347.71824 -4344.58639 -4340.04343 -4350.68191 -4339.89823 -4354.17518 -4339.70144 -4350.70806 -4341.69530 -4330.26004 -4336.43451 -4322.28659 -4349.05935 -4340.12842 -4311.02681 -4312.07219 -4304.99132 -4308.50533 -4311.34269 -4274.73445 -4259.93824 -4248.68490 -4209.30123 -4199.84729 -4162.92161 -4136.80348 -4078.60652 -4002.62993 -3964.65619 -3945.75020 -4023.00874 -3952.10622 -3876.06378 -3831.10052 -3711.48321 -3194.30591 -2787.55754 -2460.78936 -2079.05848 -985.32121 -290.53473 -133.99126 -39.80368 14.16754 55.74978 77.31174 74.12623 71.65934 65.91067 65.93607 42.06360 33.04610 13.00166 13.70844 -2.46124 -9.45239 -13.06832 -24.65875 -34.62001 -49.12799 -51.69001 -45.24918 -37.68780 -32.59058 -16.00464 31.78208 45.05689 35.36230 32.38479 155.08827 148.04868 -97.81757 -1000.65885 -2195.42657 -3030.68980 -3410.08100 -3716.83323 -3903.37463 -3962.17494 -3959.20669 -3958.68200 -3952.26060 -3944.85694 -3945.95012 -3937.38387 -3933.56128 -3934.94109 -3941.86587 -3942.63831 -3942.16317 -3952.01280 -3965.92455 -3980.08602 -3993.80847 -4005.74601 -4018.25536 -4028.10045 -4069.18370 -4078.49069 -4097.85853 -4119.47077 -4136.93298 -4141.47475 -4152.66551 -4146.25723 -4138.05154 -4121.63008 -4098.52997 -4062.60476 -4039.18714 -4012.14505 -3966.67017 -3920.62254 -3876.41796 -3849.47061 -3813.38977 -3793.36554 -3784.70535 -3781.99873
-4239.71367 -4242.44207 -4269.30699 -4284.99565 -4312.04903 -4324.63065 -4345.51482 -4362.87869 -4366.36544 -4393.33823 -4405.08374 -4421.65685 -4402.37782 -4411.50725 -4411.88205 -4405.76676 -4411.18242 -4393.10043 -4400.50515 -4397.23121 -4399.77668 -4406.21769 -4394.50329 -4390.31280 -4383.39367 -4396.12506 -4410.43421 -4395.47920 -4390.77243 -4396.09704 -4399.67167 -4395.73800 -4389.11544 -4392.57271 -4391.95716 -4379.70039 -4374.50482 -4385.74094 -4382.34473 -4384.26143 -4374.84790 -4354.48695 -4342.34599 -4327.54872 -4323.13449 -4293.37161 -4272.33887 -4255.47854 -4220.46677 -4205.60072 -4182.88794 -4146.89689 -4132.91472 -4115.41387 -4095.81135 -4071.25960 -4080.18719 -4032.21528 -3998.10192 -3815.18683 -3561.60492 -3359.81918 -2718.83709 -1652.42142 -432.21308 -208.73743 -69.27060 -14.47782 5.83465 62.22141 66.67547 66.31940 33.00167 21.79999 15.23269 6.48443 -4.57398 -16.89596 -28.18304 -30.99772 -49.48174 -38.09734 -53.80592 -55.92018 -58.84871 -41.11510 -35.44744 -12.00002 43.39456 144.20703 244.80672 337.22822 295.19484 341.77736 190.04008 -386.40737 -1008.41986 -2111.75896 -2668.76755 -3166.77516 -3650.12836 -3847.74456 -3945.17333 -3957.55990 -3959.48122 -3953.48590 -3945.15114 -3937.19116 -3938.05100 -3938.09100 -3933.45834 -3941.40465 -3944.82384 -3954.64398 -3960.41412 -3968.91076 -3987.83663 -4015.07732 -4014.83260 -4056.11918 -4069.62035 -4088.58940 -4106.97511 -4128.91960 -4139.89371 -4146.28736 -4145.26652 -4146.84858 -4133.80839 -4121.59232 -4095.96594 -4074.72701 -4041.53036 -3985.43127 -3972.73846 -3914.30188 -3893.04535 -3860.12314 -3814.05007 -3786.58029 -3786.20328 -3772.74486 -3768.10767
-4295.50422 -4293.75733 -4311.10189 -4329.15602 -4368.16035 -4389.43832 -4406.20362 -4434.60521 -4425.49670 -4448.85420 -4443.94611 -4450.99588 -4453.34597 -4454.37016 -4459.72810 -4448.01199 -4441.71412 -4440.93623 -4439.01991 -4433.84666 -4438.07123 -4436.85473 -4433.90699 -4428.51576 -4431.42966 -4424.01164 -4431.54715 -4438.45804 -4424.10455 -4430.31438 -4428.57823 -4409.51189 -4431.70202 -4430.89088 -4429.64413 -4424.25188 -4428.23458 -4423.51124 -4419.36916 -4423.25691 -4406.19315 -4411.99587 -4392.47040 -4374.23517 -4367.30737 -4345.58322 -4315.34845 -4293.08800 -4281.14421 -4261.46487 -4218.65538 -4193.23156 -4185.54658 -4166.59915 -4153.49990 -4140.34627 -4119.93223 -4104.28854 -4090.61471 -4012.55032 -3937.83842 -3785.94809 -3304.16300 -2268.44545 -1001.52637 -292.64688 -114.61614 -41.06661 2.36076 17.92865 23.81214 -9.62959 -10.51263 -21.59575 -13.97929 -14.83081 -37.98415 -41.29020 -52.07945 -58.14572 -65.25567 -61.22448 -62.89957 -61.12586 -56.17163 -46.98251 -34.97606 20.08590 153.12338 390.63710 514.31913 486.17176 504.07323 263.39435 -205.91236 -702.59013 -1328.81669 -2169.84991 -2608.23207 -3357.51579 -3761.00023 -3892.39747 -3944.29949 -3965.70301 -3959.47261 -3945.70314 -3947.44454 -3926.47046 -3933.10215 -3925.71611 -3930.69296 -3938.30135 -3953.35781 -3959.86304 -3971.20316 -3988.07163 -3995.70216 -4037.28711 -4055.98363 -4067.96590 -4093.91494 -4126.06580 -4139.87054 -4144.43266 -4141.05102 -4149.80815 -4145.33374 -4132.03266 -4101.93025 -4079.97209 -4051.50271 -4011.65942 -3983.48752 -3926.12065 -3906.40810 -3880.07922 -3849.18545 -3814.96531 -3785.86044 -3777.35905 -3771.12375 -3764.36701 -3762.27633
-4347.37068 -4346.13126 -4363.80483 -4382.71361 -4409.18225 -4426.12417 -4453.06874 -4456.11358 -4466.69092 -4480.70538 -4476.32158 -4474.75567 -4476.42011 -4471.95525 -4465.66545 -4461.88085 -4461.57377 -4459.28709 -4457.49139 -4448.45196 -4445.03734 -4443.23178 -4450.47242 -4440.42318 -4438.59763 -4441.02367 -4436.68959 -4427.29847 -4433.05453 -4422.84472 -4424.35868 -4425.17920 -4433.11398 -4432.31668 -4434.59346 -4436.72863 -4443.57966 -4432.47761 -4434.24645 -4425.44318 -4417.04109 -4423.58894 -4410.25974 -4387.00870 -4377.79601 -4363.35723 -4340.38570 -4321.45553 -4292.22710 -4272.02480 -4230.77555 -4168.27571 -4173.31509 -4119.30858 -4088.27846 -4111.45115 -4108.95218 -4125.74156 -4113.41404 -4070.16065 -4043.20247 -3862.43635 -3561.92224 -2464.57915 -1448.87907 -510.20683 -255.57605 -69.95875 -28.45580 -7.58285 -24.34648 -60.33334 -43.54142 -26.38369 -33.35346 -46.30003 -49.43193 -67.32914 -60.42544 -62.46457 -61.20544 -58.84025 -55.79478 -38.03244 -6.21393 -26.32340 -10.72944 72.82141 33.64808 306.69278 334.91665 396.51010 197.92346 -456.26886 -998.93222 -1771.07360 -2404.38971 -2827.09255 -3546.01542 -3602.89248 -3827.97574 -3968.68931 -3971.96667 -3975.98849 -3961.35269 -3953.35356 -3947.10094 -3937.89518 -3940.61282 -3934.06550 -3934.69476 -3938.51149 -3957.18993 -3978.75690 -3985.79074 -4005.65291 -4036.32232 -4051.28657 -4064.42644 -4086.64389 -4123.84992 -4142.34301 -4139.59577 -4152.48745 -4153.14362 -4144.21540 -4130.62770 -4094.07739 -4080.42127 -4034.09043 -4019.42492 -3995.34705 -3937.07176 -3895.27521 -3864.20128 -3842.41999 -3816.51703 -3800.02432 -3778.54189 -3775.10557 -3778.15884 -3770.23973 -3771.90497
-4393.16487 -4389.66853 -4399.67648 -4426.40470 -4445.71159 -4466.63122 -4468.43914 -4473.36504 -4472.51453 -4479.17837 -4482.27852 -4479.84824 -4463.96001 -4461.62501 -4455.89251 -4454.05107 -4449.33946 -4435.17218 -4433.63284 -4434.03333 -4437.01426 -4426.89166 -4417.68769 -4414.93294 -4408.10636 -4413.45616 -4390.14244 -4405.99827 -4398.18421 -4395.84947 -4411.99077 -4404.08273 -4394.24025 -4424.44837 -4416.92821 -4406.45420 -4413.57831 -4409.71527 -4420.43733 -4419.06821 -4408.85545 -4414.04343 -4393.65676 -4390.24294 -4370.68223 -4368.39123 -4335.20287 -4325.29876 -4277.33941 -4238.91742 -4064.74998 -3991.56280 -3830.36366 -3692.62674 -3637.42488 -3741.85994 -3978.13252 -4084.72825 -4115.73205 -4090.79961 -4042.31955 -3896.96153 -3561.44207 -2717.17560 -1762.37909 -832.35508 -199.35736 -154.87320 -104.30175 -70.10789 -73.64732 -60.19540 -64.65096 -55.41880 -69.08673 -66.94433 -67.00152 -63.38018 -67.99999 -55.63223 -58.00054 -0.90274 131.81018 101.18036 73.88327 -85.98157 -41.90015 -303.74010 -489.08094 -413.27780 4.62558 -721.41818 -1204.20499 -1985.05863 -2093.07264 -2703.67909 -3072.58377 -3381.96459 -3784.93503 -3928.58294 -3965.80784 -3976.54209 -3984.13447 -3980.11178 -3964.88689 -3964.80596 -3955.65151 -3934.62898 -3939.14639 -3939.81755 -3945.48785 -3958.14009 -3975.72968 -3968.94879 -3999.89563 -4021.07823 -4048.81753 -4080.42963 -4103.52151 -4128.09966 -4151.18315 -4148.28965 -4157.91934 -4146.55459 -4135.95487 -4113.86817 -4096.52526 -4068.20612 -4019.36142 -3993.46854 -3948.10210 -3910.38112 -3888.72992 -3853.68953 -3827.50125 -3808.48075 -3795.46457 -3785.67040 -3778.37061 -3770.61642 -3772.08514 -3785.36697 -3778.89963
-4425.12082 -4428.01831 -4437.27432 -4454.02937 -4457.91761 -4466.18327 -4451.02304 -4470.44426 -4458.00254 -4452.09265 -4447.27368 -4449.02460 -4429.49623 -4432.00443 -4430.64115 -4409.91781 -4404.43387 -4401.02547 -4390.67362 -4383.69631 -4376.48651 -4380.80623 -4387.74909 -4332.96166 -4361.98673 -4352.88365 -4359.97737 -4342.35784 -4342.53861 -4333.30116 -4326.83169 -4335.16993 -4337.43306 -4335.35657 -4363.00944 -4386.97452 -4368.65046 -4382.94990 -4375.30770 -4379.90766 -4383.02172 -4363.80234 -4348.54074 -4344.00733 -4328.15669 -4328.86861 -4310.02482 -4310.14993 -4183.49073 -3924.42103 -3606.33643 -3350.41537 -3179.36983 -3172.20255 -2926.60722 -3341.34525 -3653.17412 -3964.89766 -4056.46585 -3992.18477 -3867.28068 -3622.38378 -3464.44069 -2663.18223 -1864.01701 -530.14926 -224.88998 -192.52083 -150.98525 -132.34748 -131.17823 -97.92795 -80.69901 -69.64818 -55.34035 -41.33053 7.28431 15.13799 -17.51477 30.16981 29.94135 155.13400 240.42068 236.13342 202.76320 -458.08174 -1193.18214 -1514.31219 -1545.25590 -2006.78092 -1623.93822 -2270.37186 -2271.69867 -2822.20487 -3063.02953 -3502.12798 -3680.58950 -3891.63771 -3995.70943 -3989.19669 -4004.84690 -4012.72991 -4006.08114 -3996.76673 -3984.05188 -3969.72937 -3950.15422 -3947.37187 -3952.46121 -3952.95433 -3952.46062 -3967.01985 -3980.91147 -3994.19554 -4030.89637 -4054.40139 -4079.08905 -4086.98724 -4123.95958 -4140.33802 -4152.75720 -4149.52390 -4154.09174 -4143.57207 -4114.26523 -4079.89693 -4065.62494 -4011.87682 -3976.30188 -3951.53513 -3901.08139 -3887.22599 -3852.41996 -3826.45574 -3809.41643 -3800.30098 -3783.29502 -3780.51592 -3782.84918 -3786.62524 -3792.33815 -3800.80773 -3794.92549
-4440.98725 -4439.95846 -4443.99515 -4454.93662 -4454.12099 -4449.42430 -4434.01903 -4432.95110 -4411.46572 -4395.55741 -4385.57857 -4385.06741 -4352.42660 -4376.31423 -4357.68360 -4352.76049 -4336.96517 -4332.75619 -4332.53465 -4292.30785 -4304.50299 -4326.16722 -4302.09555 -4298.11168 -4301.56369 -4268.00104 -4260.45099 -4271.30892 -4245.10935 -4259.89524 -4249.88824 -4295.93126 -4282.35021 -4269.37404 -4280.25469 -4282.91255 -4294.70754 -4284.61070 -4296.29400 -4282.07585 -4276.84956 -4300.16743 -4298.61500 -4285.80388 -4278.48032 -4264.75656 -4263.16433 -4244.81282 -4026.05086 -3501.70609 -2900.96128 -2289.27997 -1683.01685 -1773.68084 -1749.80967 -2545.71795 -3163.70554 -3822.24541 -3797.67332 -3541.65969 -3319.40943 -3095.72437 -3101.17498 -2346.22088 -1527.80261 -621.19528 -228.90588 -179.90695 -144.89012 -189.69853 -233.80438 -212.89372 -78.81526 -43.29960 32.82764 59.10558 118.31849 158.50052 116.74292 153.68110 267.07926 288.74662 150.35113 63.52384 -345.41234 -1282.36413 -2360.23920 -2870.83346 -3086.14429 -3333.13545 -2868.34063 -2957.35017 -3114.18199 -3192.30817 -3453.24059 -3732.74119 -3899.13627 -3955.75472 -4026.72045 -4036.26016 -4038.65660 -4029.27155 -4028.36781 -4004.04924 -3993.14877 -3991.92509 -3966.93020 -3963.35699 -3963.05078 -3964.32697 -3966.41354 -3986.51975 -4008.71224 -4015.77995 -4050.92171 -4074.36796 -4093.29788 -4126.25558 -4140.77361 -4156.14430 -4157.53814 -4162.13815 -4151.55780 -4115.17522 -4096.67873 -4048.73620 -4018.30390 -3967.79504 -3926.42873 -3890.62587 -3876.99982 -3836.23941 -3817.83897 -3810.45620 -3789.69646 -3788.38857 -3792.36307 -3790.36943 -3791.49171 -3799.92606 -3811.98021 -3817.51337 -3820.32031
-4444.08873 -4435.00105 -4433.20686 -4426.30802 -4415.03007 -4397.97572 -4394.35439 -4375.36077 -4351.68293 -4344.61484 -4316.65989 -4296.88424 -4291.83725 -4269.10803 -4250.84561 -4247.57342 -4243.22429 -4238.39759 -4225.12379 -4235.46481 -4210.60337 -4229.06590 -4215.16241 -4192.46056 -4168.71762 -4151.58863 -4158.90819 -4174.58344 -4180.88960 -4143.80611 -4142.88318 -4144.16330 -4182.93687 -4176.73659 -4206.31915 -4195.72844 -4222.23092 -4194.02212 -4192.93818 -4225.42718 -4241.70073 -4234.34480 -4213.61243 -4232.19156 -4193.23557 -4182.37470 -4177.06908 -4087.60524 -3803.92904 -3021.99624 -2082.36273 -1429.85055 -964.18271 -905.83503 -1043.01680 -1931.83471 -2226.42035 -3211.18438 -3231.76500 -2594.81658 -2237.82489 -1790.46651 -1599.12054 -1297.79819 -1002.54084 -208.77486 -209.41069 -154.96303 -118.64140 -247.79785 -347.19892 -676.24850 -429.30886 -212.93868 46.76284 119.63326 193.79379 270.55035 170.81844 81.85530 77.23750 9.27035 -68.65153 -81.98465 -1543.53130 -2280.92976 -3085.24428 -3485.47741 -3534.25474 -3441.79087 -3405.95647 -3415.21180 -3425.62231 -3452.48360 -3797.55664 -3938.26495 -4008.41775 -4033.50561 -4054.97268 -4056.56407 -4056.46225 -4055.72729 -4040.86948 -4022.97721 -4007.68679 -3991.71692 -3994.00923 -3973.10678 -3974.18154 -3976.60589 -3987.17567 -3993.71569 -4030.18422 -4044.79055 -4081.80502 -4097.44277 -4123.68213 -4141.27710 -4163.79479 -4165.96085 -4161.48012 -4154.45745 -4125.05661 -4082.00750 -4073.49669 -4025.21569 -3972.38146 -3923.47492 -3898.03435 -3839.95846 -3825.62477 -3807.34345 -3783.62153 -3785.56471 -3786.73872 -3790.62308 -3791.17138 -3797.46503 -3805.19212 -3811.93487 -3828.78858 -3847.79480 -3845.78054
-4403.70188 -4419.62935 -4403.76878 -4383.61529 -4369.39797 -4327.10629 -4309.54074 -4290.36950 -4278.73322 -4236.02004 -4253.42280 -4218.26069 -4189.53140 -4191.45951 -4160.11115 -4165.68091 -4148.10930 -4145.37127 -4138.40719 -4121.32448 -4122.57601 -4111.75233 -4125.22650 -4099.20005 -4104.98956 -4086.48681 -4086.33508 -4078.42324 -4101.30855 -4082.63601 -4085.00607 -4094.26956 -4097.93365 -4106.23662 -4112.49156 -4116.82152 -4123.66026 -4134.13918 -4149.56677 -4148.54193 -4129.70847 -4152.60566 -4127.99306 -4146.12665 -4146.55757 -4099.76781 -4092.36328 -3879.99159 -3237.47787 -2471.40793 -1415.29496 -867.25558 -436.52373 -393.55757 -636.39488 -1092.01505 -2027.40871 -2020.51200 -2118.76753 -1618.51916 -1175.70330 -821.89757 -847.08137 -437.88917 -144.90881 -151.30797 -141.76540 -84.43557 -83.37584 -341.62497 -894.89575 -1460.34958 -1661.28216 -1303.52162 -603.79591 -467.46958 -113.08740 8.19805 -639.48509 -261.05952 -743.48206 -560.12724 -878.48740 -1485.63698 -2199.26738 -2886.09120 -3404.16141 -3548.09746 -3493.43094 -3452.68585 -3549.92574 -3597.94538 -3699.17405 -3899.89130 -3971.57316 -3996.90161 -4045.32128 -4053.68293 -4072.77055 -4068.70213 -4079.58108 -4065.46226 -4048.42570 -4025.33863 -4019.40411 -4006.72933 -3998.06133 -3983.64172 -3991.91814 -4002.03767 -4010.14775 -4027.38011 -4027.18147 -4055.30562 -4093.37083 -4121.31295 -4145.28131 -4169.29175 -4171.07062 -4168.73325 -4160.63828 -4127.28839 -4101.46846 -4057.04195 -4018.20640 -3969.66558 -3929.52956 -3870.96693 -3856.61767 -3816.56073 -3796.09827 -3785.69671 -3788.81764 -3784.07868 -3793.52735 -3800.61146 -3804.57906 -3823.17656 -3823.04609 -3839.77633 -3852.60477 -3868.63576 -3863.87277
-4368.71824 -4370.78134 -4341.23804 -4318.61166 -4280.88824 -4268.18864 -4241.21981 -4204.80221 -4171.84785 -4145.25126 -4117.27621 -4099.67336 -4129.94962 -4082.01905 -4074.41947 -4089.58096 -4086.22032 -4052.96489 -4058.28493 -4059.03461 -4051.91472 -4037.29111 -4026.71452 -4023.75456 -4037.32092 -4020.27796 -4012.01272 -3992.15873 -3993.67779 -4005.10519 -4008.79686 -4002.36667 -4032.15431 -4040.00150 -4043.81222 -4066.53600 -4068.12488 -4069.17689 -4082.00739 -4097.58453 -4091.75697 -4084.11151 -4076.11510 -4050.85406 -3975.35511 -3883.18952 -3723.72006 -3413.81210 -2742.53041 -1718.21572 -1082.33116 -377.10111 -288.40303 -261.18110 -335.17658 -657.50994 -887.66667 -1108.54403 -1085.27847 -924.43120 -513.87918 -379.02523 -235.65063 -126.00855 -126.43167 -108.25871 -90.46615 -72.13756 -109.43918 -429.45718 -2080.43004 -3041.43625 -3042.08941 -2458.65834 -2361.75334 -2116.27520 -2495.00472 -2178.29638 -2120.01665 -1970.87523 -2588.08095 -1664.27305 -2335.15614 -2539.23627 -2806.70164 -3292.65576 -3456.49529 -3534.63244 -3521.62751 -3614.20400 -3644.80516 -3755.23650 -3976.16216 -3990.24796 -4021.23276 -4040.49129 -4059.37154 -4065.37482 -4072.14127 -4068.54204 -4074.46701 -4063.67233 -4051.20311 -4040.27138 -4027.11983 -4024.43427 -4010.53975 -4002.13836 -4010.78082 -4007.40545 -4019.09212 -4055.00637 -4075.82382 -4106.55038 -4136.31020 -4142.20861 -4145.04176 -4163.62156 -4174.36233 -4166.30595 -4139.81860 -4095.82175 -4062.48831 -4025.25496 -3971.88950 -3913.20648 -3898.61869 -3850.91442 -3811.44728 -3803.56120 -3784.27290 -3771.23065 -3778.18684 -3791.89570 -3802.20732 -3807.19060 -3820.28929 -3835.90634 -3863.21118 -3876.74824 -3875.39380 -3886.88877 -3884.74545
-4319.88288 -4316.68312 -4282.73647 -4276.13614 -4230.79151 -4194.22366 -4155.17994 -4118.52834 -4107.38488 -4087.57630 -4067.95489 -4038.95876 -4022.98057 -4020.07362 -4017.49358 -3998.54118 -3992.37448 -3997.62436 -3971.99928 -3983.09531 -3980.18040 -3986.00355 -3963.49274 -3966.95466 -3953.64774 -3954.43639 -3953.74698 -3952.70252 -3952.27185 -3954.04793 -3965.25695 -3974.14554 -3980.97501 -3998.73728 -4006.84855 -4008.31044 -4025.08894 -4018.59054 -4038.61257 -4046.14676 -4050.49107 -4039.94608 -4022.38374 -3939.16629 -3745.89706 -3415.97510 -3173.92203 -2358.13690 -1909.99890 -935.18877 -468.15158 -255.90832 -138.73422 -155.84078 -180.77523 -286.61877 -413.37106 -417.62739 -359.33401 -282.69643 -172.90295 -122.83356 -131.19610 -76.12655 -25.62557 1.77776 -18.98912 -62.21298 -145.49376 -1044.97087 -2385.73958 -3400.10576 -3715.00785 -3547.64498 -3382.40754 -3392.08759 -3373.76095 -3420.23391 -3324.42836 -3247.18658 -3265.43954 -3294.22179 -3120.12651 -3084.81510 -3172.44581 -3384.36396 -3587.65267 -3658.42346 -3827.49377 -3901.84826 -3995.36792 -3994.36673 -4007.74474 -4023.35578 -4033.60223 -4058.16727 -4058.30721 -4060.81660 -4066.98929 -4064.12404 -4069.25641 -4066.01353 -4048.66962 -4037.43497 -4029.07292 -4026.64640 -4021.32804 -4017.93831 -4030.67118 -4044.03718 -4061.42908 -4081.70647 -4091.40459 -4124.51965 -4153.74346 -4163.29410 -4172.79765 -4170.04570 -4164.77931 -4157.13619 -4118.89797 -4083.80326 -4011.36896 -3980.47523 -3936.15205 -3889.48211 -3842.54225 -3820.33008 -3791.82271 -3785.35529 -3782.02368 -3775.95842 -3785.77979 -3795.13685 -3804.93207 -3822.11835 -3846.43412 -3848.25915 -3864.68535 -3882.27643 -3900.42232 -3899.56629 -3910.32836
-4249.63126 -4241.41300 -4208.53192 -4200.85329 -4156.28919 -4102.77402 -4091.22732 -4067.43530 -4029.59656 -4011.26014 -3978.47782 -3980.79611 -3969.51778 -3977.25545 -3959.74567 -3952.35431 -3949.37043 -3949.23161 -3932.03360 -3941.31207 -3943.59127 -3925.72865 -3917.44193 -3936.95235 -3917.98820 -3919.54207 -3921.08801 -3919.97897 -3927.68178 -3922.11296 -3923.77510 -3925.02041 -3957.31106 -3963.34257 -3977.04206 -3996.10202 -3999.90842 -4006.97031 -4015.26363 -4020.00697 -4021.21564 -4005.92804 -3926.35423 -3774.49715 -2917.96747 -2550.93814 -1953.09545 -1331.17962 -714.09379 -293.96059 -155.99179 -130.31392 -92.75151 -88.48557 -115.62231 -169.16044 -227.71949 -240.46379 -172.82352 -156.56795 -117.79838 -86.92671 -32.46988 29.12277 70.72523 90.76955 24.98288 -48.63017 -458.12068 -1911.03462 -2897.29567 -3701.69034 -3932.52098 -3899.69817 -3760.89725 -3790.50710 -3760.03605 -3721.60167 -3663.41516 -3603.63952 -3516.99867 -3450.36081 -3435.67442 -3376.96750 -3502.15225 -3657.57194 -3754.66919 -3904.93454 -3948.42797 -3982.17336 -4012.15629 -4019.41652 -4035.48223 -4031.70860 -4043.09294 -4033.45378 -4042.51869 -4043.88514 -4053.26291 -4053.14251 -4052.08873 -4050.85618 -4038.11703 -4036.97455 -4038.13054 -4024.75409 -4031.21785 -4036.69528 -4048.21973 -4067.41821 -4088.55872 -4105.93932 -4121.02376 -4142.57120 -4164.22449 -4172.39193 -4177.84189 -4170.42715 -4160.72718 -4121.30744 -4093.06228 -4025.84468 -3995.18145 -3955.04638 -3887.21222 -3833.67814 -3820.50938 -3782.98291 -3763.85092 -3763.63596 -3771.12380 -3779.27953 -3795.16560 -3808.76156 -3827.80652 -3846.53876 -3853.75643 -3873.73113 -3890.75506 -3902.49940 -3911.11077 -3925.95742 -3928.14221
-4169.05550 -4180.47954 -4144.38033 -4116.68201 -4077.63018 -4063.41102 -4037.45199 -4012.83549 -3979.02781 -3977.28685 -3956.55161 -3945.07904 -3932.11557 -3924.32135 -3925.97686 -3918.84157 -3919.76183 -3916.89696 -3906.07054 -3914.99112 -3912.52425 -3909.54187 -3906.20067 -3908.44829 -3904.24318 -3902.78654 -3902.47009 -3906.32345 -3896.46445 -3906.42563 -3909.52738 -3925.81124 -3928.93330 -3951.08384 -3962.32076 -3975.06947 -3996.29126 -4006.15062 -4006.50801 -4019.20672 -3996.81956 -3949.17749 -3724.19770 -3397.25169 -2137.67667 -1745.88689 -1394.79746 -649.77438 -274.37624 -157.60251 -79.85499 -43.94854 -41.08859 -57.31734 -93.33893 -289.40475 -268.01709 -169.92355 -120.96507 -119.45499 -108.61416 -85.93343 -72.73002 -21.56307 0.33873 76.46511 92.05100 69.90928 -397.62271 -1980.72716 -3144.84827 -3634.03579 -3817.26994 -3822.36545 -3740.77894 -3734.23823 -3682.20794 -3625.60750 -3579.62569 -3566.21301 -3538.84498 -3535.81329 -3589.54020 -3731.99217 -3792.39236 -3864.37095 -3969.69903 -4001.75149 -4014.42936 -4016.40119 -4027.97927 -4040.51281 -4025.50645 -4032.48826 -4023.34850 -4026.23548 -4036.62838 -4024.06013 -4027.54909 -4035.42858 -4021.90517 -4023.76196 -4023.93944 -4029.76678 -4033.42936 -4034.32863 -4039.89377 -4052.57674 -4064.70216 -4093.85874 -4110.49524 -4120.62288 -4151.55786 -4172.41644 -4173.88364 -4177.13236 -4165.70093 -4154.42076 -4135.45101 -4082.87523 -4035.12807 -3996.84084 -3935.60626 -3888.18138 -3847.88631 -3828.79862 -3786.89670 -3761.45662 -3764.60123 -3761.78605 -3774.17432 -3787.51299 -3804.73895 -3826.23175 -3837.47386 -3861.94455 -3883.50363 -3893.16282 -3911.58492 -3919.93892 -3926.72528 -3933.85334 -3945.53101
-4118.22187 -4121.19217 -4090.36856 -4070.31823 -4041.16048 -4022.94478 -3984.44123 -3969.49312 -3957.48938 -3948.72074 -3933.76204 -3923.92126 -3918.17530 -3924.80321 -3909.14781 -3909.16432 -3903.25268 -3907.37555 -3904.07957 -3900.60425 -3907.09987 -3915.60532 -3911.49357 -3900.13876 -3898.45787 -3904.07194 -3896.85819 -3897.45171 -3905.25534 -3896.78433 -3907.59950 -3916.51718 -3929.63085 -3952.01558 -3974.12417 -3985.68661 -3998.31509 -3999.07035 -4016.68492 -4020.99997 -4004.73105 -3949.41337 -3447.01988 -2836.36002 -1909.43184 -873.64922 -361.07147 -178.19835 -109.65094 -63.32809 -12.04299 -20.60484 -83.82032 -189.48812 -629.79564 -726.17158 -478.07960 -208.68296 -126.37237 -140.73253 -153.18971 -274.02638 -270.58569 -199.06233 -73.66277 28.70039 131.14705 -110.37132 -791.18932 -2163.88406 -3180.54076 -3499.77711 -3567.42830 -3530.58831 -3513.52360 -3469.87237 -3496.23809 -3484.47562 -3557.74206 -3672.81873 -3726.81454 -3747.20606 -3872.53010 -3872.39215 -3931.81674 -3971.52159 -4004.54383 -4008.93555 -4027.20970 -4021.39828 -4019.46644 -4012.81020 -4024.30378 -4016.45161 -4007.75117 -4001.99170 -4000.14857 -4003.68914 -3995.68004 -3998.30222 -3997.85321 -3996.59873 -4002.94278 -4012.09162 -4026.03035 -4031.25341 -4062.71605 -4063.91213 -4099.81409 -4107.52073 -4141.23378 -4154.44066 -4173.63274 -4186.74594 -4177.90551 -4171.20589 -4157.05533 -4123.62855 -4100.30596 -4039.57499 -4007.92428 -3954.99939 -3901.79780 -3872.30966 -3825.58534 -3792.38510 -3771.60117 -3763.04856 -3771.72413 -3768.44361 -3775.24701 -3791.92477 -3820.75972 -3857.19069 -3858.07951 -3881.93970 -3896.62633 -3911.92765 -3924.91491 -3938.25426 -3946.24070 -3954.67909 -3960.68412
-4072.29440 -4067.88250 -4049.98193 -4026.06988 -4004.38729 -3980.62850 -3963.18999 -3953.66894 -3942.55214 -3934.23694 -3925.43935 -3914.97546 -3922.39929 -3910.80218 -3908.18218 -3911.45079 -3910.19155 -3915.45039 -3922.62511 -3916.94701 -3920.74088 -3922.53999 -3918.00697 -3918.17068 -3914.20887 -3908.71118 -3902.74963 -3914.03925 -3912.59671 -3925.23531 -3922.46969 -3940.19983 -3949.46834 -3971.31495 -3979.15076 -3996.61177 -4002.75003 -4015.52712 -4028.74423 -4027.29912 -3998.51319 -3845.38950 -3213.24350 -2485.87572 -1281.26272 -453.69631 -256.47528 -120.81836 -124.17098 -81.38038 -30.57249 -8.88426 -211.30614 -750.70754 -1515.63724 -1677.57043 -1419.64504 -515.52901 -306.11876 -396.57115 -711.47048 -713.23250 -1109.00539 -1050.39257 -752.78271 -679.04626 -469.53122 -1141.39642 -1696.08476 -2404.23553 -3119.76321 -3355.36746 -3416.49445 -3427.56022 -3469.62648 -3486.04284 -3539.77716 -3696.08740 -3819.77854 -3873.63382 -3915.04037 -3972.09607 -3978.16610 -3997.15360 -3994.94502 -4005.78735 -4002.62220 -4006.94897 -4012.25308 -4007.35910 -4003.07282 -3988.70662 -3993.74131 -3982.40847 -3983.48477 -3978.80670 -3977.27098 -3978.53471 -3982.30382 -3984.37860 -3987.25285 -3990.26221 -4000.48175 -4013.69611 -4024.35802 -4041.34227 -4067.05287 -4100.71458 -4118.77748 -4136.98109 -4165.10325 -4168.33590 -4177.77671 -4177.69676 -4160.11835 -4145.94951 -4117.22643 -4084.24789 -4056.79706 -4006.50172 -3961.84773 -3891.38447 -3857.83230 -3825.57857 -3790.07610 -3777.60406 -3760.92019 -3760.07586 -3763.83193 -3774.88361 -3791.62176 -3813.78987 -3837.61695 -3856.59978 -3870.93387 -3898.10856 -3914.06227 -3924.38688 -3945.63482 -3952.83164 -3951.85043 -3968.04481 -3966.43598
-4023.32554 -4028.95054 -4008.19932 -3986.79310 -3974.95827 -3961.97202 -3951.61690 -3948.07798 -3942.76229 -3935.71342 -3936.32647 -3933.44647 -3935.75716 -3926.81033 -3920.43197 -3926.18588 -3916.09444 -3919.44207 -3934.78157 -3931.62057 -3931.82482 -3930.13598 -3934.01625 -3930.33937 -3931.49165 -3942.44088 -3935.24661 -3935.14350 -3926.35090 -3935.56911 -3942.87692 -3950.16291 -3958.40581 -3976.94645 -3995.86584 -4002.24454 -4021.81512 -4031.83137 -4035.17805 -4029.96684 -3993.87407 -3765.01880 -3102.20727 -2018.62014 -727.74473 -285.67332 -130.03404 -378.87050 -524.24617 -331.54435 -106.37178 -259.88294 -808.85686 -1767.10045 -2570.55295 -2568.97897 -1994.94708 -1152.58289 -1003.74495 -1292.13587 -1595.74315 -2490.80724 -2250.75850 -2588.23022 -2313.09294 -1420.28419 -1779.16011 -2599.34853 -2937.57496 -3169.95465 -3392.00449 -3470.96498 -3438.64037 -3504.96230 -3576.09544 -3639.43677 -3775.41551 -3855.74862 -3895.77159 -3962.37540 -3979.25226 -3988.01416 -3990.56490 -3986.35911 -3987.64294 -3986.96412 -3990.88412 -3978.58483 -3985.85707 -3985.42469 -3981.03764 -3971.40328 -3974.01536 -3958.49048 -3957.84724 -3946.37135 -3954.53669 -3945.70685 -3955.45166 -3952.91229 -3958.13575 -3979.21034 -3996.81715 -4006.26301 -4036.64051 -4055.04972 -4079.57139 -4106.48990 -4125.97657 -4150.41265 -4163.69126 -4181.20622 -4178.70236 -4171.09458 -4155.32211 -4119.34853 -4074.41554 -4043.13211 -3995.88035 -3944.95001 -3895.30206 -3885.42177 -3814.03553 -3782.02672 -3774.67442 -3765.08014 -3757.35792 -3755.83278 -3775.65099 -3797.09456 -3818.16501 -3822.00912 -3860.04532 -3878.90566 -3886.62010 -3902.18741 -3935.72081 -3944.95597 -3945.80954 -3960.12278 -3972.16502 -3969.68064 -3968.62734
-4005.58223 -3999.11980 -3990.70693 -3975.19451 -3959.00909 -3956.43044 -3946.87588 -3951.78933 -3956.80947 -3944.63690 -3941.49894 -3946.53934 -3947.14214 -3942.76197 -3948.23044 -3944.20421 -3942.63195 -3943.74758 -3953.17569 -3949.35846 -3950.47765 -3951.67260 -3949.48976 -3948.66874 -3955.37968 -3949.31227 -3948.38811 -3950.20829 -3950.90039 -3948.38283 -3955.98455 -3962.38368 -3977.21262 -3985.74510 -4001.87621 -4017.46429 -4026.63780 -4041.00615 -4044.33973 -4035.10409 -3979.74333 -3457.14211 -3127.47464 -1402.84806 -601.53760 -433.72338 -770.38207 -1131.98658 -1537.39998 -1375.50915 -718.52446 -486.67356 -1068.39538 -1981.74715 -3087.48975 -3167.71546 -2822.24924 -2302.08739 -2286.13699 -2726.31795 -3049.39433 -3318.15046 -3535.79377 -3621.13924 -3466.36505 -3169.70197 -3428.21892 -3339.81160 -3510.88064 -3485.66947 -3635.28311 -3582.06919 -3622.72679 -3735.41692 -3765.87195 -3846.12828 -3929.11793 -3947.67620 -3953.60844 -3962.01004 -3976.86043 -3972.84553 -3971.73530 -3969.73458 -3946.84617 -3964.91838 -3963.51425 -3946.16853 -3943.40626 -3934.38747 -3936.07882 -3933.40410 -3934.75858 -3937.31859 -3931.47483 -3927.59622 -3929.35573 -3942.16792 -3943.01277 -3946.10856 -3960.88330 -3979.99417 -4007.87441 -4019.03160 -4045.94555 -4063.08877 -4097.79981 -4122.61099 -4148.47550 -4166.73351 -4174.23502 -4173.12575 -4163.53403 -4136.33856 -4107.12613 -4059.72814 -4017.24573 -3992.73813 -3948.31025 -3900.28842 -3850.09879 -3805.79658 -3788.69187 -3766.61417 -3747.89985 -3751.30633 -3756.96440 -3772.85473 -3782.31906 -3801.58756 -3824.76732 -3850.29358 -3866.48993 -3877.89233 -3910.73914 -3927.52276 -3935.23033 -3948.98168 -3967.03844 -3973.72314 -3968.15227 -3976.67400 -3980.84187
