391.68000 210.56000 215.90209 245.53282 261.78024 275.75639 326.97303 338.44367 343.40999 356.10661 370.94206 382.94112 384.92441 365.17033 368.51999 351.96556 342.44538 322.37068 351.39861 342.19946 377.02608 387.81711 393.81028 398.01577 399.86736 399.89480 399.96817 399.73077 399.73895 400.00085 399.99086 400.00562 399.83461 399.56085 410.33027 430.50731 476.06842 491.01868 443.72183 383.64751 373.98945 369.68589 379.78011 390.01361 396.15106 398.58630 399.08344 399.47076 399.90618 399.77826 399.82888 399.94953 399.96921 400.00000 400.00000 400.00000 400.00000 400.00000 400.00000 400.00000 400.00000 400.00031 400.00069 399.97567 399.64266 399.55883 399.07304 399.72112 397.48971 396.15090 391.75334 388.64469 367.60008 362.00519 329.97726 312.94292 284.49347 252.98474 228.22614 194.24838 164.93908 172.09838 217.36804 240.34228 283.18431 332.03431 326.85618 326.05131 333.56375 354.65976 371.89364 388.63208 395.21649 386.53238 386.31129 389.96292 394.33360 369.07599 326.80177 91.96141 -56.39772 -156.65399 -196.90257 -215.03656 -330.62845 -689.31973 -1663.08818 -2190.93846 -3054.76863 -3630.83282 -3799.69599 -3971.77467 -3994.52161 -3998.48066 -4000.03796 -4000.00000 -4000.00000 -4000.00000 -4000.00000 -4000.00000 -4000.00000 -4000.00000 -4000.00000 -4000.00000 -4000.00000 -4000.00000 -4000.00000 -4000.00000 -4000.00000 -4000.00000 -4000.00000 -4000.00000 -4000.00000 -4000.00000 -4000.00000 -4000.00000 -4000.00000 -4000.00000 -4000.00000 -4000.00000 -4000.00000 -4000.00000 -4000.50000
174.85000 28.94000 66.41489 64.64991 120.15828 153.68966 186.55203 172.71252 240.63074 242.12618 290.17051 325.06313 255.96945 276.22676 245.36993 267.60999 276.53606 232.07486 223.61128 249.37110 318.21736 322.51099 348.21996 387.92560 394.57381 396.76759 396.69955 396.57456 399.05364 399.50678 399.74545 399.99206 399.38203 397.36905 398.62396 453.49080 555.13182 581.00607 545.04279 476.92989 406.05972 370.11764 360.52783 367.71245 377.02151 386.09207 390.67519 393.32472 394.87599 394.79494 398.26072 397.48934 399.55999 399.96551 400.00384 400.00050 400.00087 400.00000 400.00000 399.99990 399.99244 399.68865 398.92669 399.43389 394.95743 391.32493 388.69769 378.65325 385.35884 375.97185 369.54799 356.62375 347.43898 322.42831 305.87763 313.07431 316.24854 323.50583 297.97188 305.84983 286.89950 282.86069 278.90603 322.98095 331.19711 327.51003 318.62930 308.69913 315.63510 336.43102 356.95158 379.52063 396.73636 396.68095 399.08821 399.03649 398.28530 383.61578 331.76083 176.79023 47.71004 -113.35153 -166.76790 -199.05779 -241.97141 -321.81184 -670.65260 -1106.93430 -1746.26253 -2631.13046 -3238.05909 -3778.58483 -3914.11962 -3981.39928 -3993.72176 -3999.52108 -4000.00000 -4000.00000 -4000.00000 -4000.00000 -4000.00000 -4000.00000 -4000.00000 -4000.00000 -4000.00000 -4000.00000 -4000.00000 -4000.00000 -4000.00000 -4000.00000 -4000.00000 -4000.00000 -4000.00000 -4000.00000 -4000.00000 -4000.00000 -4000.00000 -4000.00000 -4000.00000 -4000.00000 -4000.00000 -4000.00000 -4000.50000
-52.28000 -117.47000 -82.52461 -54.14554 -50.40317 10.52860 6.91464 61.02090 68.00294 96.71364 128.73711 170.73151 158.07762 118.53022 127.89083 106.95080 -3.04179 87.60623 61.15858 88.29045 138.47195 260.86858 299.55094 320.86967 360.93018 370.63415 385.44538 386.35503 384.66360 394.22577 398.53858 399.13998 398.52461 390.50353 396.07142 475.40716 627.25719 660.22370 629.62785 572.08193 500.80670 394.80318 389.24543 366.39903 361.01751 366.61864 367.97213 373.63096 376.25230 373.31281 384.22583 391.63414 396.97453 399.47344 399.46482 399.90970 400.01116 399.97710 399.93144 399.75823 398.72325 398.13538 391.35550 378.64556 377.74493 360.87653 322.37812 319.35729 322.60664 324.50509 321.70930 314.58074 316.04047 325.64402 328.06140 345.46071 362.22855 386.30292 384.75009 363.62155 353.10068 347.74638 350.20115 342.92953 331.38635 316.52600 308.42848 303.13519 303.60865 316.34033 341.99740 378.54380 394.93602 399.35401 399.98335 399.86210 399.54782 396.77610 371.65276 276.30693 126.21097 -18.79020 -142.52117 -182.93325 -198.67081 -236.76686 -355.59932 -720.32386 -1171.05817 -1880.16384 -2738.85530 -3321.58826 -3634.33678 -3836.19546 -3956.00760 -3992.93979 -4000.01080 -4000.00244 -3999.99863 -4000.00000 -4000.00000 -4000.00000 -4000.00000 -4000.00000 -4000.00000 -4000.00000 -4000.00000 -4000.00000 -4000.00000 -4000.00000 -4000.00000 -4000.00000 -4000.00000 -4000.00000 -4000.00000 -4000.00000 -4000.00000 -4000.00000 -4000.00000 -4000.00000 -4000.00000 -4000.00000 -4000.50000
-167.86000 -183.16000 -168.62152 -147.33157 -156.16044 -125.93832 -111.71497 -91.75417 -95.61569 -9.24699 -40.54191 -17.45459 -36.87699 -38.95474 -53.89174 -75.40297 -71.19371 -106.21226 -112.47246 -58.91691 -1.76849 66.71227 163.81058 248.40924 299.00383 320.18538 313.47619 312.92436 324.46905 367.60181 389.13369 395.87970 392.44393 383.72401 415.15093 492.41048 701.63748 749.75267 735.50975 710.59092 647.17019 561.52634 467.27313 409.84337 367.93785 357.19753 361.30200 350.24796 347.78239 355.67495 355.29505 370.72970 384.61429 386.18086 397.53133 395.68779 398.55595 398.60856 397.41431 397.74025 392.30331 377.45453 359.40684 340.05773 330.38455 293.45717 232.69975 251.14360 223.75867 258.81954 285.93905 299.74416 325.30297 343.88876 348.75495 379.58358 407.76039 438.46507 434.25407 406.01819 389.62244 380.93951 357.42007 332.03329 314.01724 308.65952 302.02237 300.24657 301.58084 311.42863 341.20810 366.93251 389.55911 399.26469 399.98934 399.99815 399.95285 399.11397 392.77936 378.87522 228.81924 38.54969 -83.91445 -148.40944 -176.87084 -204.60226 -229.41044 -315.08794 -641.04445 -1163.66806 -1365.35766 -2741.83702 -2942.52502 -3563.52988 -3842.08924 -3973.41314 -3978.73283 -3997.54445 -3999.97082 -4000.00035 -4000.00000 -4000.00000 -4000.00000 -4000.00000 -4000.00000 -4000.00000 -4000.00000 -4000.00000 -4000.00000 -4000.00000 -4000.00000 -4000.00000 -4000.00000 -4000.00000 -4000.00000 -4000.00000 -4000.00000 -4000.00000 -4000.00000 -4000.00000 -4000.00000 -4000.00000 -4000.50000
-198.41000 -198.96000 -195.41934 -190.90605 -188.61744 -176.47505 -167.66210 -155.10136 -163.03618 -149.84859 -115.81022 -147.84876 -137.72086 -152.94499 -170.34064 -148.21544 -172.93268 -176.51193 -166.65084 -140.66198 -119.20849 -61.93622 -14.99640 66.87497 129.36781 178.72558 168.01545 152.37424 288.77056 305.26067 358.54431 379.68360 382.74999 386.90721 424.94017 537.41432 724.58229 767.48835 776.71015 773.79749 726.73478 646.33199 604.59840 493.41665 444.65675 452.39921 420.59738 388.21267 357.15550 349.60824 326.64787 338.98662 363.14348 374.29084 392.65251 389.13809 391.77196 389.65139 381.99258 369.37122 370.57500 336.37741 290.89254 229.92960 191.38524 156.30438 153.85012 152.09776 168.54686 222.63763 291.14032 325.31093 364.49903 373.51320 388.49631 414.66730 461.68761 516.68461 482.77604 439.59123 410.75644 381.68243 348.04469 319.00731 310.01453 301.78708 300.12822 300.06235 300.85809 305.06540 329.93353 366.78193 386.97159 398.09395 399.92548 400.00164 400.00420 400.00366 397.87569 385.97929 355.69809 245.37470 129.73459 -61.59153 -151.70351 -187.08322 -203.32222 -208.54674 -327.29178 -450.91721 -964.79777 -1371.88174 -1783.16220 -3009.47815 -3580.94124 -3733.24000 -3895.45143 -3981.27395 -3997.44048 -3999.97074 -4000.00097 -4000.00000 -4000.00000 -4000.00000 -4000.00000 -4000.00000 -4000.00000 -4000.00000 -4000.00000 -4000.00000 -4000.00000 -4000.00000 -4000.00000 -4000.00000 -4000.00000 -4000.00000 -4000.00000 -4000.00000 -4000.00000 -4000.00000 -4000.00000 -4000.00000 -4000.50000
-200.52000 -200.01000 -199.68808 -200.02626 -199.14291 -197.34828 -196.71589 -196.70375 -195.30073 -186.98449 -189.75681 -186.28314 -189.49503 -191.87578 -196.98010 -198.20044 -197.42141 -195.98671 -195.74710 -194.09683 -168.02732 -139.93198 -116.81810 -55.40583 -15.61638 34.89655 -7.49692 -22.04615 40.44533 161.81624 237.90562 308.40759 340.74952 340.47846 396.40152 569.43061 735.25495 781.04484 797.91139 796.31542 791.97269 763.31810 726.07146 664.88271 640.67257 572.29361 514.84445 549.71105 531.82382 473.70542 378.95517 370.47186 388.70454 376.68001 376.43300 372.42450 373.65054 372.55546 335.14355 324.73385 305.43400 237.53485 190.51591 157.77458 114.77936 104.36950 80.15924 93.30370 145.51859 214.98413 314.87655 350.88990 379.05937 392.54345 401.98598 423.79784 507.70753 587.98571 569.36359 472.29307 422.03525 382.27682 347.42086 324.42894 307.25208 300.70946 300.06397 300.00925 300.78801 307.87338 335.54355 363.20806 386.44232 398.54589 399.93191 399.80170 399.69703 399.50208 399.76257 396.59239 372.81298 304.92472 240.06122 47.56086 -57.47539 -160.84494 -190.88509 -195.70244 -208.62543 -250.57937 -374.95059 -642.67717 -1260.16820 -1913.13903 -2956.16763 -3281.54806 -3663.52800 -3902.75689 -3986.39421 -3998.34680 -4000.03152 -4000.00000 -4000.00000 -4000.00000 -4000.00000 -4000.00000 -4000.00000 -4000.00000 -4000.00000 -4000.00000 -4000.00000 -4000.00000 -4000.00000 -4000.00000 -4000.00000 -4000.00000 -4000.00000 -4000.00000 -4000.00000 -4000.00000 -4000.00000 -4000.00000 -4000.50000
-200.50000 -200.00000 -200.01567 -200.01092 -200.01018 -199.97946 -199.86211 -199.74987 -199.45553 -198.98587 -198.37800 -199.20778 -198.50269 -199.41811 -199.13852 -199.92608 -199.88675 -199.74516 -199.86113 -197.77273 -196.57808 -195.46707 -174.40712 -131.88810 -117.55675 -122.40610 -127.72624 -121.12217 -63.28363 47.16279 136.76796 237.91554 261.76904 276.02231 365.36087 610.57176 712.78833 789.05172 799.48215 799.93362 798.91010 798.35985 779.94295 784.56367 735.44409 758.34599 773.88480 782.40279 705.49773 636.79380 511.21341 499.25617 478.61254 424.33293 401.72702 388.06127 360.60005 318.00134 278.57657 253.61480 187.49422 164.37125 135.56575 92.47029 84.29192 67.63106 59.38687 81.00093 106.37449 203.42086 321.38440 355.79678 377.58459 386.13410 403.97729 460.86138 545.21627 636.56039 615.16411 504.34675 421.65136 396.05777 363.88552 328.51408 309.06765 301.74280 300.04691 300.03239 300.76583 309.74431 327.57289 354.08187 394.19792 398.53854 399.73237 399.22775 396.22269 393.91521 395.27106 395.89826 391.85694 364.71345 327.79504 259.71917 53.03384 -49.97245 -132.79327 -176.53104 -195.61125 -210.42119 -233.13499 -309.84857 -694.12617 -958.59648 -1806.77158 -2428.24771 -3195.25569 -3624.47479 -3959.17380 -3998.61669 -3999.98859 -4000.00320 -4000.00000 -4000.00000 -4000.00000 -4000.00000 -4000.00000 -4000.00000 -4000.00000 -4000.00000 -4000.00000 -4000.00000 -4000.00000 -4000.00000 -4000.00000 -4000.00000 -4000.00000 -4000.00000 -4000.00000 -4000.00000 -4000.00000 -4000.00000 -4000.50000
-200.50000 -200.00000 -200.00000 -200.00000 -200.00086 -200.00061 -200.00330 -200.00517 -200.00769 -200.00785 -199.99704 -200.00046 -200.00400 -200.00757 -200.00916 -200.01201 -200.01048 -200.00402 -200.00403 -199.99361 -199.86255 -199.54211 -197.94569 -194.22941 -183.91425 -185.73827 -190.79676 -178.04301 -160.59616 -129.18395 2.94481 101.62317 123.25713 202.88528 356.97879 595.42871 752.65629 788.85255 799.18896 800.00512 799.86055 799.93991 799.52182 802.73113 852.71391 892.79663 922.41496 906.14354 865.34977 775.42240 677.42347 583.97813 592.86335 560.58611 489.86186 451.13321 365.40524 311.30918 255.58239 208.84220 154.29204 125.17161 111.58599 100.97796 97.63546 84.16618 66.49915 81.38987 105.83310 174.91596 269.57700 300.35671 322.87424 378.62943 400.94589 457.42697 604.30299 697.67186 676.81999 532.73288 425.44064 404.74325 369.50776 344.48947 312.13627 305.44828 300.26941 300.20945 302.00965 312.09435 343.22738 366.17163 390.65708 398.32247 396.44701 394.53038 379.23774 370.26878 380.22209 384.94364 401.02174 417.04083 407.96949 400.13296 221.46296 107.75139 18.48176 -147.19491 -166.79729 -195.24460 -199.69736 -218.39147 -331.88388 -629.29919 -1020.66449 -1808.38026 -2344.63058 -3443.57811 -3838.88220 -3974.18842 -3998.96577 -4000.00551 -4000.00122 -4000.00000 -4000.00000 -4000.00000 -4000.00000 -4000.00000 -4000.00000 -4000.00000 -4000.00000 -4000.00000 -4000.00000 -4000.00000 -4000.00000 -4000.00000 -4000.00000 -4000.00000 -4000.00000 -4000.00000 -4000.00000 -4000.00000 -4000.50000
-200.50000 -200.00000 -200.00000 -200.00000 -200.00000 -200.00000 -200.00000 -200.00000 -200.00000 -200.00000 -200.00000 -200.00000 -200.00000 -200.00197 -200.00000 -200.00000 -200.00000 -200.00000 -200.00000 -200.00000 -200.00402 -199.99910 -199.55597 -198.99725 -198.27196 -198.19207 -198.78724 -198.97367 -181.51760 -156.62514 -100.44629 -26.72479 51.79376 153.66262 285.98881 511.87733 719.44492 787.94619 799.60160 800.00204 799.99586 800.28156 809.47314 866.06224 934.80648 1132.44048 1133.62471 1169.59108 1093.88447 947.80220 776.00956 706.27169 645.30027 628.15307 604.43359 532.01933 420.02409 325.66259 290.31940 242.10348 205.57778 161.93149 168.16964 174.78017 187.88288 153.03103 131.86556 135.09162 121.61733 178.60339 209.71317 244.83097 293.73097 311.71507 391.94003 479.07915 598.78880 677.70971 680.90534 531.32174 435.64866 410.69524 389.40111 365.63364 320.50972 309.46610 301.07899 300.55487 303.18403 315.37792 347.96014 375.62225 390.75406 397.69320 391.26674 379.20217 338.70279 302.84358 308.84970 349.32949 371.25187 432.26932 496.42775 477.28274 423.52096 241.37326 85.46622 -25.84954 -125.77785 -157.69382 -198.52059 -200.82445 -210.07321 -246.09643 -583.49083 -746.02606 -1684.24937 -2936.29459 -3682.73604 -3954.31423 -3995.35145 -4000.02553 -4000.00000 -4000.00000 -4000.00000 -4000.00000 -4000.00000 -4000.00000 -4000.00000 -4000.00000 -4000.00000 -4000.00000 -4000.00000 -4000.00000 -4000.00000 -4000.00000 -4000.00000 -4000.00000 -4000.00000 -4000.00000 -4000.00000 -4000.00000 -4000.50000
-200.50000 -200.00000 -200.00000 -200.00000 -200.00000 -200.00000 -200.00000 -200.00000 -200.00000 -200.00000 -200.00000 -200.00000 -200.00000 -200.00000 -200.00000 -200.00000 -200.00000 -200.00000 -200.00000 -200.00000 -200.00000 -200.00000 -200.00334 -199.90465 -200.00027 -200.00045 -199.95195 -199.34063 -194.06385 -184.61263 -127.57363 -69.42272 4.02136 136.77648 293.42356 562.56657 730.88681 787.12993 799.50234 800.00026 799.97688 802.26392 815.00728 932.60286 1091.91981 1264.93070 1375.08040 1362.69181 1284.56997 1184.46973 920.70125 758.88849 706.75922 683.99772 643.92970 551.75892 453.49395 389.59777 328.00527 303.54012 297.04242 272.07670 276.39584 294.99172 288.74903 267.10701 249.02352 226.76155 228.62330 240.12972 234.52069 245.32029 283.61253 309.61944 378.57231 490.39761 608.85798 695.51839 661.66442 569.61608 452.59088 404.72272 388.83425 373.85620 333.81327 314.87084 300.67684 301.06363 307.89902 325.77100 349.07977 381.19952 395.03667 393.50056 368.09852 336.93734 263.48043 222.97484 231.66560 273.18243 328.05986 461.71720 527.06566 548.57109 554.04622 454.68724 205.38514 81.75586 -27.17870 -129.51969 -181.97213 -193.01267 -200.05311 -203.99196 -277.50354 -546.66128 -1566.63785 -2547.72420 -3652.97090 -3920.39312 -3993.52368 -4000.06905 -4000.00000 -4000.00000 -4000.00000 -4000.00000 -4000.00000 -4000.00000 -4000.00000 -4000.00000 -4000.00000 -4000.00000 -4000.00000 -4000.00000 -4000.00000 -4000.00000 -4000.00000 -4000.00000 -4000.00000 -4000.00000 -4000.00000 -4000.00000 -4000.50000
-200.50000 -200.00000 -200.00000 -200.00000 -200.00000 -200.00000 -200.00000 -200.00000 -200.00000 -200.00000 -200.00000 -200.00000 -200.00000 -200.00000 -200.00000 -200.00000 -200.00000 -200.00000 -200.00000 -200.00000 -200.00000 -200.00000 -200.00000 -200.00000 -200.00000 -200.00000 -199.73011 -196.55247 -187.92875 -163.01239 -129.92075 -52.85284 27.10919 151.78971 371.47539 572.39835 695.37797 788.68241 799.75138 800.07380 800.24489 803.38234 836.22840 953.45445 1148.19986 1348.84687 1430.84761 1442.85537 1374.86839 1274.50642 1109.28945 844.39267 727.11318 696.87079 665.96106 597.59489 513.48497 463.59734 421.07610 385.88849 376.77484 366.30552 360.12405 362.64960 353.29916 337.47887 317.94907 317.95945 310.74164 310.03117 320.59964 302.71560 320.20477 348.22008 370.64391 512.07263 597.10848 727.01820 709.36381 565.34544 474.44746 407.81508 393.74409 380.41995 349.86531 313.95480 302.37242 302.99524 310.61679 336.89459 361.61775 391.40299 398.17956 390.57426 341.16546 281.58615 204.99547 142.56800 122.08521 189.41105 281.17078 438.05655 542.10644 578.46687 576.07862 473.96796 387.28401 234.49138 30.93128 -67.23865 -131.87032 -168.95173 -194.09898 -202.45859 -256.54182 -466.95969 -1332.16194 -2629.63243 -3562.44234 -3903.63306 -3990.50519 -4000.07547 -4000.00000 -4000.00000 -4000.00000 -4000.00000 -4000.00000 -4000.00000 -4000.00000 -4000.00000 -4000.00000 -4000.00000 -4000.00000 -4000.00000 -4000.00000 -4000.00000 -4000.00000 -4000.00000 -4000.00000 -4000.00000 -4000.00000 -4000.00000 -4000.50000
-200.50000 -200.00000 -200.00000 -200.00000 -200.00000 -200.00000 -200.00000 -200.00000 -200.00000 -200.00000 -200.00000 -200.00000 -200.00000 -200.00000 -200.00000 -200.00000 -200.00000 -200.00000 -200.00000 -200.00000 -200.00000 -200.00000 -200.00000 -200.00112 -200.00165 -199.81831 -197.33014 -190.19884 -178.57070 -137.04585 -83.02690 -5.03570 79.33220 166.76987 372.85529 543.58490 763.28010 793.52550 799.98397 800.47892 804.06576 814.22588 864.65141 1008.11388 1179.28890 1411.99921 1484.98775 1492.57208 1458.91615 1370.15471 1198.50372 994.24699 788.90623 704.71652 681.92488 646.36359 591.13025 538.26663 478.04762 427.96575 410.10461 415.15728 406.07418 398.36432 392.41389 395.95984 384.54504 382.81896 382.99112 378.52046 370.24201 364.27583 352.18219 370.03802 399.54356 502.36507 586.72066 720.72636 674.53404 553.87107 457.59193 408.73143 393.52487 382.42777 351.98704 316.53332 303.35888 303.27249 310.92971 337.25802 372.17343 387.11002 395.78619 392.70617 301.20479 233.57029 121.89416 82.84814 84.35798 138.58305 281.28059 403.98138 552.36800 590.42146 581.22717 531.21289 417.66378 230.51303 169.30371 61.23083 -74.80458 -159.12660 -184.55715 -197.79956 -244.16690 -472.78261 -1456.00455 -2354.56154 -3529.68683 -3882.14650 -3996.39485 -4000.03041 -4000.00000 -4000.00000 -4000.00000 -4000.00000 -4000.00000 -4000.00000 -4000.00000 -4000.00000 -4000.00000 -4000.00000 -4000.00000 -4000.00000 -4000.00000 -4000.00000 -4000.00000 -4000.00000 -4000.00000 -4000.00000 -4000.00000 -4000.00000 -4000.50000
-200.50000 -200.00000 -200.00000 -200.00000 -200.00000 -200.00000 -200.00000 -200.00000 -200.00000 -200.00000 -200.00000 -200.00000 -200.00000 -200.00000 -200.00000 -200.00000 -200.00000 -200.00000 -200.00000 -200.00000 -200.00000 -200.00000 -200.00000 -199.86116 -199.70163 -197.87457 -186.62364 -184.52033 -132.63816 -87.81577 -36.44351 49.94116 183.74490 291.84851 503.39264 683.16544 779.46016 797.17556 800.42423 804.98557 825.91354 834.06708 883.19081 1012.68037 1220.76023 1413.12441 1496.18958 1497.90793 1483.63287 1430.67216 1229.95910 1054.71796 827.09480 718.17374 699.43738 677.53914 656.13268 607.03129 597.44055 574.96636 522.76969 465.67441 429.78229 416.85407 407.63617 399.59283 395.55644 391.74663 385.36378 371.40095 351.07873 341.70049 324.53544 358.69499 384.50970 503.39041 587.66502 714.52906 705.06630 558.75755 446.89126 387.59328 379.70931 380.77984 358.23263 323.73322 304.90663 301.58692 307.50954 333.23653 369.89899 389.76619 388.87447 363.98944 259.86172 169.96545 101.37372 73.12353 82.80968 123.91863 277.76665 400.60458 552.72341 595.11604 571.56549 490.01472 388.75754 252.88518 168.04227 113.12554 23.59553 -111.63384 -157.52021 -195.18866 -259.84270 -434.55511 -1400.72687 -2364.53079 -3474.15234 -3867.79325 -3992.12038 -4000.19065 -4000.00000 -4000.00000 -4000.00000 -4000.00000 -4000.00000 -4000.00000 -4000.00000 -4000.00000 -4000.00000 -4000.00000 -4000.00000 -4000.00000 -4000.00000 -4000.00000 -4000.00000 -4000.00000 -4000.00000 -4000.00000 -4000.00000 -4000.00000 -4000.50000
-200.50000 -200.00000 -200.00000 -200.00000 -200.00000 -200.00000 -200.00000 -200.00000 -200.00000 -200.00000 -200.00000 -200.00000 -200.00000 -200.00000 -200.00000 -200.00000 -200.00000 -200.00000 -200.00000 -200.00000 -200.00000 -200.00111 -199.87714 -197.71180 -196.11139 -184.86218 -172.51414 -143.66663 -97.65095 -53.68371 9.60311 96.50244 246.86706 384.85528 562.70669 718.86716 794.34337 796.49907 803.16340 824.46109 848.69258 917.44551 974.38761 1086.44451 1303.35237 1423.61765 1490.26531 1499.22044 1498.42235 1468.03083 1386.26984 1102.76756 888.03408 744.14770 701.68828 694.34914 687.55843 663.41716 651.37317 608.95457 583.44271 550.12458 489.21303 461.71615 435.37439 408.54649 392.87701 385.35504 355.42032 327.59884 302.67261 234.33816 269.76572 268.04606 337.26997 446.21075 559.36750 708.35232 681.67199 594.46782 397.93299 339.76956 332.92927 344.36644 347.94875 330.16370 307.61339 302.10626 305.76394 327.70782 348.87678 376.74440 382.06957 346.75745 254.96171 144.97287 84.67388 67.10438 75.87186 152.43886 312.03495 437.12524 566.01280 586.40680 544.75301 433.48435 297.70923 178.59079 163.44655 138.94777 64.62984 -26.36086 -133.99309 -178.13435 -261.97307 -411.89466 -1339.50132 -2527.46107 -3531.74287 -3854.00504 -3989.92080 -4000.09909 -4000.00000 -4000.00000 -4000.00000 -4000.00000 -4000.00000 -4000.00000 -4000.00000 -4000.00000 -4000.00000 -4000.00000 -4000.00000 -4000.00000 -4000.00000 -4000.00000 -4000.00000 -4000.00000 -4000.00000 -4000.00000 -4000.00000 -4000.00000 -4000.50000
-200.50000 -200.00000 -200.00000 -200.00000 -200.00000 -200.00000 -200.00000 -200.00000 -200.00000 -200.00000 -200.00000 -200.00000 -200.00000 -200.00000 -200.00000 -200.00000 -200.00000 -200.00000 -200.00000 -200.00000 -200.00348 -199.87377 -197.75035 -195.75102 -179.78751 -162.49641 -144.13838 -76.71838 -53.74295 -6.66808 36.16978 134.18921 333.92973 494.89513 663.50915 734.49169 795.75641 799.83943 806.61468 829.93909 936.28863 1066.55860 1100.67015 1152.24281 1286.50674 1366.62238 1480.22135 1498.22075 1497.61930 1479.87734 1432.75431 1173.89350 960.30657 764.50599 706.42387 699.50528 696.62228 696.99133 686.00686 674.30323 639.74254 625.23843 573.39041 534.90541 486.48077 409.45994 383.47271 324.96256 277.86145 220.46870 198.87982 169.76915 178.14949 204.21966 219.95992 336.17891 491.17648 640.03643 673.95977 561.09939 404.97742 281.01826 250.96491 304.79147 323.67806 315.33309 303.35898 300.80450 303.82972 315.43838 337.67046 366.95828 362.61059 345.34161 236.04584 137.66698 75.85586 62.97588 75.37320 163.25490 274.98361 418.31241 570.23752 580.19367 537.07813 343.21977 248.90149 150.95442 135.08543 148.31010 110.81868 23.51685 -66.43308 -160.34470 -201.54007 -351.75368 -992.36912 -2223.15738 -3061.93409 -3857.82315 -3994.55285 -4000.32256 -4000.00000 -4000.00000 -4000.00000 -4000.00000 -4000.00000 -4000.00000 -4000.00000 -4000.00000 -4000.00000 -4000.00000 -4000.00000 -4000.00000 -4000.00000 -4000.00000 -4000.00000 -4000.00000 -4000.00000 -4000.00000 -4000.00000 -4000.00000 -4000.50000
-200.50000 -200.00000 -200.00000 -200.00000 -200.00000 -200.00000 -200.00000 -200.00000 -200.00000 -200.00000 -200.00000 -200.00000 -200.00000 -200.00000 -200.00000 -200.00000 -200.00000 -200.00000 -200.00000 -199.92980 -198.89913 -194.75436 -179.64530 -167.11487 -137.99570 -99.48733 -66.46040 -29.25254 -1.87364 56.53402 121.64019 208.96878 384.66048 599.14502 698.74247 791.17476 798.50017 801.52148 809.78769 872.51868 941.66280 1180.59729 1242.04680 1211.32368 1230.58177 1336.85406 1434.16514 1494.67157 1497.68466 1491.74692 1411.48832 1172.39692 933.49164 747.07222 711.43048 700.31811 699.92871 699.46041 696.88071 698.72059 687.92620 671.98026 658.23288 615.82187 525.50392 413.33083 336.81343 264.88916 186.12196 149.86622 105.92871 81.39488 92.18223 102.32181 153.64302 240.94229 362.35803 523.49464 586.50919 506.11708 265.82009 209.88894 171.56912 238.88697 277.17102 302.80987 302.27441 300.15988 302.17972 308.67149 318.69508 337.98835 336.66416 301.05505 206.06441 127.78478 73.32798 61.90011 65.24604 137.49343 217.21382 358.45466 508.55472 543.94046 468.61270 306.09518 169.93108 124.03551 109.70164 140.39312 137.49647 73.44489 -65.72132 -153.92590 -208.95618 -459.74203 -829.23057 -2143.82931 -3190.54962 -3889.08758 -3977.33491 -4000.08640 -4000.00000 -4000.00000 -4000.00000 -4000.00000 -4000.00000 -4000.00000 -4000.00000 -4000.00000 -4000.00000 -4000.00000 -4000.00000 -4000.00000 -4000.00000 -4000.00000 -4000.00000 -4000.00000 -4000.00000 -4000.00000 -4000.00000 -4000.00000 -4000.50000
-200.50000 -200.00000 -200.00000 -200.00000 -200.00000 -200.00000 -200.00000 -200.00000 -200.00000 -200.00000 -200.00000 -200.00000 -200.00000 -200.00000 -200.00000 -200.00000 -200.00000 -200.00468 -199.81663 -197.08936 -194.26713 -177.12970 -156.71599 -105.64594 1.51751 -2.93392 15.88885 62.77430 140.37912 226.17711 354.43634 368.21734 549.71985 721.59292 768.38738 797.65695 801.42134 802.44699 832.66191 898.61057 1039.31874 1205.05845 1301.91132 1280.14917 1218.67772 1290.01294 1390.13814 1482.68216 1489.61926 1486.81941 1404.14667 1159.27645 944.68734 768.33169 709.39370 700.27511 699.99963 700.00534 700.01507 699.28837 697.97439 695.38548 685.83041 658.33745 549.60624 362.71363 261.59781 169.65723 116.67379 83.62628 68.45314 65.40635 65.85817 65.95467 90.17810 126.19507 240.32358 382.29555 400.96585 293.79430 250.74844 111.62548 99.29003 152.90554 245.42978 278.88979 298.10050 299.28248 300.62027 302.56652 302.69824 312.22892 316.05106 294.29842 225.12630 147.69104 105.67917 60.62861 61.61222 71.79452 161.47929 272.18546 433.27162 467.70481 432.72319 269.65279 143.37500 95.92384 90.06946 123.14063 141.89239 65.82397 -48.71242 -161.71374 -202.33459 -335.84568 -881.65725 -1872.21854 -2894.26817 -3872.56932 -3966.85361 -3998.31665 -4000.00923 -4000.00000 -4000.00000 -4000.00000 -4000.00000 -4000.00000 -4000.00000 -4000.00000 -4000.00000 -4000.00000 -4000.00000 -4000.00000 -4000.00000 -4000.00000 -4000.00000 -4000.00000 -4000.00000 -4000.00000 -4000.00000 -4000.00000 -4000.50000
-200.50000 -200.00000 -200.00000 -200.00000 -200.00000 -200.00000 -200.00000 -200.00000 -200.00000 -200.00000 -200.00000 -200.00000 -200.00000 -200.00000 -200.00000 -200.00000 -200.00344 -200.01192 -199.71079 -186.27131 -154.23707 -87.55337 12.51637 73.00629 65.68799 74.88814 142.77188 258.49228 339.78582 478.50501 531.79664 592.98134 720.56263 753.62583 789.74324 799.58301 804.49674 819.93235 855.99736 966.06426 1111.35405 1287.60027 1355.55174 1312.73737 1220.51646 1223.10683 1339.57441 1401.18791 1448.09937 1413.13525 1313.98400 1049.54505 877.38238 727.21744 705.51654 700.12048 700.00019 700.00090 700.00772 700.00835 699.91773 699.44030 690.02905 651.62066 554.75616 335.50656 192.83076 113.55937 75.59940 57.39288 55.20817 51.63836 48.50444 50.46827 49.33129 81.90298 106.75080 182.20723 235.74757 193.40391 159.05372 68.59735 62.25170 94.28063 168.45564 251.71928 278.16288 294.77156 299.25019 300.44489 301.69033 303.88706 302.68861 289.85756 241.38315 173.59469 116.20535 64.51692 54.62399 56.96569 105.30876 191.79515 253.44467 378.07300 349.99720 220.20964 134.02120 79.04353 78.51627 104.99943 119.53855 50.30386 -69.52218 -149.20386 -206.38305 -307.62671 -815.08583 -1720.03752 -2973.44530 -3700.26117 -3940.13820 -3997.23046 -4000.02356 -4000.00000 -4000.00000 -4000.00000 -4000.00000 -4000.00000 -4000.00000 -4000.00000 -4000.00000 -4000.00000 -4000.00000 -4000.00000 -4000.00000 -4000.00000 -4000.00000 -4000.00000 -4000.00000 -4000.00000 -4000.00000 -4000.00000 -4000.50000
-200.50000 -200.00000 -200.00000 -200.00000 -200.00000 -200.00000 -200.00000 -200.00000 -200.00000 -200.00000 -200.00000 -200.00000 -200.00000 -200.00000 -200.00000 -200.00001 -200.00622 -198.49857 -191.80565 -163.34973 -66.93338 69.54260 177.44804 246.72428 196.42032 196.32072 258.95432 385.07538 553.22492 675.39238 711.50786 752.91827 762.50499 790.33852 799.75200 801.79758 817.60292 862.73723 919.30057 1045.58856 1191.56174 1308.17794 1377.09015 1330.18309 1224.21527 1204.31143 1244.02997 1306.88366 1283.39847 1257.65642 1209.82410 969.46869 811.65633 723.97953 705.13099 699.99864 700.00000 700.00000 700.00000 700.06926 700.18703 699.42788 692.78103 622.65812 525.31280 296.41876 114.78813 84.27521 64.90687 54.73838 47.86273 39.72279 41.63695 42.34116 44.86768 52.16647 52.87773 84.30704 101.55045 86.60918 59.41395 31.53245 44.89852 66.06432 132.95347 190.64734 263.58284 287.69059 293.50307 299.02610 298.23277 299.29023 297.60195 287.30712 257.80430 179.47321 115.61571 64.69425 48.01442 44.52957 51.93388 92.41322 152.07979 223.36935 233.50169 167.35238 101.02830 68.71269 81.65070 107.07162 118.43506 38.97635 -74.71790 -151.73364 -199.90558 -301.09257 -667.65775 -1633.94305 -2670.04342 -3531.60612 -3928.23426 -3989.41945 -4000.09837 -4000.00000 -4000.00000 -4000.00000 -4000.00000 -4000.00000 -4000.00000 -4000.00000 -4000.00000 -4000.00000 -4000.00000 -4000.00000 -4000.00000 -4000.00000 -4000.00000 -4000.00000 -4000.00000 -4000.00000 -4000.00000 -4000.00000 -4000.50000
-200.50000 -200.00000 -200.00000 -200.00000 -200.00000 -200.00000 -200.00000 -200.00000 -200.00000 -200.00000 -200.00000 -199.99966 -199.99709 -199.99831 -199.98506 -199.99416 -199.87655 -196.04054 -164.26507 -85.14167 39.09403 181.10998 337.26438 369.34628 282.20804 302.88011 387.58689 591.09142 608.13247 765.52440 779.91060 790.75791 793.36699 800.28998 801.80901 819.70318 844.05556 898.76385 1027.37853 1102.32743 1221.01726 1298.35376 1319.70853 1305.34424 1216.13180 1177.17851 1153.66923 1151.72133 1085.22581 1079.44132 1013.69792 870.33051 756.31170 710.10639 700.71070 700.00202 699.99549 700.07972 700.10791 701.32043 705.33368 702.56753 689.94678 651.54861 420.10786 240.73155 110.99646 74.13124 56.53115 51.88861 42.41468 34.57207 34.63140 33.49480 33.75153 36.43674 41.62273 54.31657 56.01743 54.34801 34.63240 22.76438 18.70107 34.82255 86.69874 159.03359 210.38651 260.12460 283.44997 288.83851 292.47213 285.15995 285.17789 269.82044 237.68970 188.24834 102.65386 60.39462 33.61882 28.40505 40.06087 49.13818 66.13019 135.25279 152.96043 106.93646 83.27547 76.47439 91.09674 115.34700 114.17703 44.87559 -72.56663 -161.73933 -195.42442 -260.20093 -562.48063 -1097.66750 -2439.38920 -3443.93219 -3876.59960 -3989.92368 -4000.07723 -4000.00168 -4000.00000 -4000.00000 -4000.00000 -4000.00000 -4000.00000 -4000.00000 -4000.00000 -4000.00000 -4000.00000 -4000.00000 -4000.00000 -4000.00000 -4000.00000 -4000.00000 -4000.00000 -4000.00000 -4000.00000 -4000.00000 -4000.50000
-200.50000 -200.00000 -200.00000 -200.00000 -200.00000 -200.00000 -199.99997 -200.00000 -200.00000 -199.99817 -199.99782 -199.99714 -200.13843 -200.43674 -200.59863 -203.91256 -199.18706 -188.12904 -133.34954 15.59496 148.42893 530.26525 515.18521 451.61454 422.00694 462.36726 523.95295 660.25153 759.42605 787.15349 797.71892 799.25907 800.75884 802.93502 829.00928 846.69254 904.03044 1014.35512 1100.06950 1161.83009 1212.00556 1244.95028 1271.41822 1242.25587 1206.21276 1159.80097 1113.97377 1063.90176 947.13356 909.78188 825.41555 777.84886 725.95663 704.19728 700.00464 700.02727 700.11316 700.24840 709.82954 713.20531 725.37608 737.53704 723.35956 677.32348 372.53535 268.63295 146.31647 78.19020 63.00706 52.04083 45.63981 35.93814 33.75392 31.37640 30.95264 31.87557 33.10853 34.90945 39.16191 31.59369 27.57744 18.88015 12.93103 17.56959 28.76936 84.58017 125.81297 185.61128 245.86257 255.01684 269.69364 260.85959 248.54201 234.07308 215.38862 160.67404 77.52980 45.89091 25.95944 22.73534 22.24615 27.83258 46.81941 53.05353 80.86698 82.59348 79.57198 86.21879 100.99562 127.35143 113.33786 39.29983 -83.60844 -159.00948 -195.19248 -232.66473 -323.35950 -1105.42718 -1929.08577 -3375.04722 -3755.22353 -3985.32408 -3999.77079 -4000.01157 -4000.00000 -4000.00000 -4000.00000 -4000.00000 -4000.00000 -4000.00000 -4000.00000 -4000.00000 -4000.00000 -4000.00000 -4000.00000 -4000.00000 -4000.00000 -4000.00000 -4000.00000 -4000.00000 -4000.00000 -4000.00000 -4000.50000
-200.50000 -200.00000 -200.00000 -200.00000 -200.00000 -200.00000 -199.99723 -199.98192 -199.90984 -200.15129 -200.98665 -202.34196 -205.22344 -219.93857 -225.72962 -216.42843 -216.37422 -178.94913 -81.02014 144.11060 490.78409 655.83989 642.23840 606.44389 560.47594 599.12562 668.41125 757.60360 788.93522 798.23626 800.02620 800.25038 805.48115 819.39690 856.97189 888.58079 977.35964 1110.93054 1145.05325 1187.99675 1204.18165 1213.74245 1221.60729 1212.03497 1205.47866 1163.37658 1089.53990 958.48891 835.79909 762.18046 742.03967 712.06757 702.10105 701.06820 701.45682 702.08196 702.09961 709.91160 726.34802 762.18165 810.97688 818.28500 820.98359 764.99156 503.24266 344.56263 223.91432 128.57334 76.93748 62.37048 52.91570 43.62976 36.94864 34.10466 30.85325 30.65881 31.08221 31.34483 29.47408 25.88727 23.69862 16.96067 13.32397 12.74415 23.18095 37.14043 51.97939 108.22377 151.02400 202.25342 209.12363 197.29281 173.62120 142.09809 127.42571 92.69813 51.76096 33.87515 23.99773 21.46009 21.22733 24.12440 34.10000 50.50082 69.05922 75.35734 81.91791 94.18029 113.00400 128.79067 122.27212 15.03748 -85.74037 -167.67543 -197.46158 -223.20263 -465.41859 -977.84692 -1720.53008 -3079.06101 -3766.91865 -3983.50705 -3993.27258 -4000.01459 -4000.00000 -4000.00000 -4000.00000 -4000.00000 -4000.00000 -4000.00000 -4000.00000 -4000.00000 -4000.00000 -4000.00000 -4000.00000 -4000.00000 -4000.00000 -4000.00000 -4000.00000 -4000.00000 -4000.00000 -4000.00000 -4000.50000
-200.51000 -200.00000 -200.00235 -199.96789 -199.98446 -199.99818 -200.00865 -201.20788 -203.18148 -212.01551 -224.12316 -267.27703 -314.03068 -274.25317 -357.07164 -353.43127 -312.93314 -213.91940 27.26184 250.48677 630.16212 699.44741 736.20321 723.33785 706.49020 695.67339 742.01290 783.59452 796.75941 799.97111 799.99271 802.15367 821.86015 843.68225 902.64101 1021.87598 1097.91123 1153.75775 1184.99969 1198.29792 1200.32497 1202.74044 1202.66046 1201.68709 1197.85603 1176.44333 1114.52083 930.06035 818.22150 726.74593 703.34202 702.14360 701.42039 702.19282 717.10972 718.16619 727.87572 747.54551 792.11922 884.58553 905.65446 1008.08726 956.30578 877.09941 754.80912 603.36177 408.38504 267.67596 123.83332 85.44451 56.54094 49.31316 43.85595 35.46638 32.64798 30.89698 30.25661 30.14052 29.33137 27.21791 23.06880 18.35435 16.12186 14.04730 14.02834 20.24442 32.53951 60.49377 94.80756 124.52536 121.55419 114.47387 82.30941 82.24495 81.22536 45.68433 43.42535 25.21505 22.23564 21.25550 22.05597 25.87973 36.82617 56.76584 71.52975 84.80464 94.37490 98.21646 112.87243 128.60226 96.58348 30.42370 -93.37065 -187.61262 -196.16048 -205.86167 -370.11408 -756.03992 -1645.99658 -3017.97675 -3720.95367 -3935.42235 -3994.12632 -4000.01007 -4000.00000 -4000.00000 -4000.00000 -4000.00000 -4000.00000 -4000.00000 -4000.00000 -4000.00000 -4000.00000 -4000.00000 -4000.00000 -4000.00000 -4000.00000 -4000.00000 -4000.00000 -4000.00000 -4000.00000 -4000.00000 -4000.50000
-199.50000 -199.99000 -200.20182 -200.71145 -201.95555 -202.34363 -209.41321 -213.46576 -242.98254 -294.56960 -330.34995 -365.89243 -563.34061 -690.52084 -729.09921 -759.82657 -699.71499 -526.25397 -34.19842 303.29342 633.26382 746.68094 777.62054 763.29357 769.91200 783.57381 790.98215 798.87605 799.57517 799.99198 800.32429 809.43059 829.56366 884.98059 1043.04714 1068.05359 1148.67640 1188.81797 1198.42314 1199.18549 1200.05014 1200.16733 1200.18547 1200.22981 1197.89077 1173.66525 1088.64890 907.86034 794.20030 719.34956 702.17237 700.61183 702.24606 729.93100 758.23124 793.50520 786.93498 852.14320 940.62384 985.13233 1070.94472 1112.00195 1121.99320 1123.27703 986.41317 863.74140 763.88656 495.12024 240.63781 106.94143 63.50734 56.58123 51.55274 42.38534 36.27802 32.59657 30.32927 30.01110 29.38322 27.26192 24.87323 20.60153 18.95143 16.11437 15.20966 16.08825 17.72824 32.22929 32.29082 45.09214 69.98794 59.03886 43.23947 32.90960 31.65298 32.30517 25.65736 22.40108 24.13361 23.45623 27.65805 33.64567 40.90191 66.34280 81.77416 92.09155 96.53127 102.98265 109.26962 121.21362 117.31005 46.91149 -105.16672 -174.43226 -197.95730 -215.59032 -301.23741 -776.77597 -1584.02949 -2743.31742 -3700.13666 -3945.89102 -3994.08676 -4000.08836 -4000.00000 -4000.00000 -4000.00000 -4000.00000 -4000.00000 -4000.00000 -4000.00000 -4000.00000 -4000.00000 -4000.00000 -4000.00000 -4000.00000 -4000.00000 -4000.00000 -4000.00000 -4000.00000 -4000.00000 -4000.00000 -4000.50000
-200.72960 -200.98000 -209.50460 -220.56627 -227.58699 -236.54196 -327.13469 -344.06108 -403.54844 -560.06707 -777.01535 -816.73882 -1363.81785 -1791.91379 -1551.69237 -1618.15462 -1362.76963 -850.30414 -231.52346 115.69047 533.80438 705.94963 782.87108 777.85063 790.96076 799.01826 799.51974 799.68957 800.00041 799.97927 801.22527 808.92177 852.00221 969.43709 1063.94144 1152.77633 1175.64226 1196.93944 1199.53720 1199.77084 1200.00000 1199.99922 1199.99874 1199.83708 1197.54142 1163.58964 1092.01970 906.92789 800.78868 712.24365 701.97969 702.16930 715.83851 736.30770 818.77578 873.22884 932.55208 1013.11794 1042.48746 1095.79726 1142.37736 1175.84772 1180.65320 1170.00343 1123.35770 1071.13896 970.63687 564.08061 296.09540 152.81898 70.02240 57.16625 55.27066 47.88176 41.45228 34.23400 30.82622 30.15010 29.77347 28.68316 27.18782 23.80056 20.80061 18.19273 16.69512 15.58011 15.70711 19.12517 27.10897 24.02279 22.20304 27.60700 22.74313 17.86365 20.39168 22.12571 23.93865 28.93852 30.51981 36.13165 36.78307 47.07207 60.10515 80.82608 88.11119 97.06618 99.04045 102.08410 107.54945 113.31803 88.32214 32.51115 -108.64344 -166.69175 -197.99481 -211.52009 -311.29984 -1106.33739 -1787.06141 -2594.35476 -3635.27232 -3957.53663 -3988.61351 -4000.05640 -4000.00000 -4000.00000 -4000.00000 -4000.00000 -4000.00000 -4000.00000 -4000.00000 -4000.00000 -4000.00000 -4000.00000 -4000.00000 -4000.00000 -4000.00000 -4000.00000 -4000.00000 -4000.00000 -4000.00000 -4000.00000 -4000.50000
30.12000 -256.44000 -305.44748 -341.87720 -376.45423 -435.02423 -584.09016 -741.36172 -721.30504 -1210.52057 -1634.04805 -1816.19905 -2212.94152 -2631.41549 -2660.62978 -2810.07112 -2462.40166 -1758.47477 -817.48822 -84.83936 302.45827 538.73709 712.86545 752.59780 777.20810 790.64870 798.31155 799.49849 799.95628 800.07878 801.93414 818.65192 906.50936 998.47063 1100.72888 1180.64455 1194.21147 1199.42853 1199.96838 1200.00000 1200.00000 1200.00000 1200.00145 1199.87207 1192.01490 1147.80379 1067.96277 893.13082 783.28907 709.80154 703.90917 702.46553 722.23572 779.95422 929.42635 1003.05131 1068.90831 1103.40749 1157.22683 1172.46941 1191.66804 1194.76164 1196.65070 1195.26923 1189.09485 1155.07099 1091.41864 735.98252 350.95582 167.15259 70.44474 60.71489 58.90289 53.71710 48.28917 40.30928 33.05530 30.79264 30.02995 29.72731 27.54821 25.96485 22.70185 20.64734 18.13738 16.54418 15.66214 15.89827 16.51584 16.58488 17.90856 16.76474 16.00999 16.24731 19.71380 26.58211 36.16281 38.30315 52.21598 57.74079 68.06065 73.07621 86.18996 88.76385 94.85794 99.07583 99.80991 101.49651 104.56322 110.81503 95.86441 28.41946 -110.05923 -170.29463 -199.37484 -223.42900 -437.35671 -955.84263 -2014.17801 -3119.64573 -3836.37991 -3951.87420 -3999.07869 -4000.00077 -4000.00000 -4000.00000 -4000.00000 -4000.00000 -4000.00000 -4000.00000 -4000.00000 -4000.00000 -4000.00000 -4000.00000 -4000.00000 -4000.00000 -4000.00000 -4000.00000 -4000.00000 -4000.00000 -4000.00000 -4000.00000 -4000.50000
-568.64524 -543.50000 -648.33000 -866.14150 -938.83274 -957.25964 -1169.11288 -1578.00133 -1737.07360 -2059.07598 -2610.26150 -3107.26656 -3206.19155 -3327.58551 -3566.70057 -3553.15868 -3077.89575 -2639.91871 -1665.17791 -778.16858 -63.03836 378.77105 494.06916 593.14968 685.77798 736.76374 781.33600 794.09274 798.94065 800.96080 806.96680 829.38737 926.97652 1012.16386 1132.34119 1175.81449 1198.75029 1200.00447 1200.00000 1200.00000 1200.00000 1200.00012 1200.00843 1199.39092 1190.02048 1166.35917 1000.60294 887.11308 742.76313 690.33503 688.12904 691.00541 720.63273 831.13045 947.76899 1086.34165 1145.22696 1168.71055 1186.67675 1193.89153 1199.20903 1199.44467 1199.98007 1199.75220 1197.13071 1179.53588 1065.24540 900.95079 420.06938 177.41093 92.94481 65.57016 60.71814 57.81482 53.23175 45.48001 37.68666 32.55500 31.15893 30.14493 28.66016 26.97442 24.04407 21.36928 19.62598 17.29280 16.31591 15.77768 15.58046 15.96219 15.74974 15.56484 15.63396 16.82926 23.56355 44.48759 56.93708 69.82601 75.37301 73.77961 83.21006 84.28436 90.07241 95.38063 99.11161 99.80102 100.00367 100.71865 103.24668 106.89104 70.22762 26.47388 -97.83156 -163.51445 -203.22615 -266.77988 -508.49220 -1224.46091 -2445.72880 -3391.95304 -3818.17075 -3973.50444 -3999.98378 -4000.00018 -4000.00000 -4000.00000 -4000.00000 -4000.00000 -4000.00000 -4000.00000 -4000.00000 -4000.00000 -4000.00000 -4000.00000 -4000.00000 -4000.00000 -4000.00000 -4000.00000 -4000.00000 -4000.00000 -4000.00000 -4000.00000 -4000.50000
-159.62000 -1317.57000 -1562.20938 -1584.49818 -1682.76912 -1975.14117 -2167.88457 -2491.22925 -2903.10188 -3276.43308 -3241.31998 -3623.86800 -3724.92370 -3829.74715 -3933.89610 -3932.44869 -3698.65024 -3283.32326 -2594.90970 -1428.62605 -571.28085 15.56566 174.82787 430.99702 549.14100 659.35771 751.22227 772.95616 792.71347 801.43954 816.26233 830.23578 1004.67363 1083.24622 1151.87397 1189.96847 1198.90428 1200.01099 1200.00000 1200.00000 1200.00011 1200.00038 1199.87931 1198.98569 1179.62514 1123.09604 983.12114 799.57255 676.28212 656.80570 631.09643 640.93314 667.90008 782.48624 919.90762 1095.22007 1153.54092 1190.33431 1198.11837 1199.94842 1199.94882 1200.00000 1200.00104 1200.00301 1199.29487 1185.53886 1130.83752 860.59292 716.85793 360.48930 188.02812 116.78524 86.15372 62.08772 59.17201 50.60442 45.15315 35.98296 32.48498 30.43954 29.70121 27.48404 25.16426 22.00902 20.03281 18.83951 16.70152 16.39304 15.60302 15.57692 15.96545 17.00249 19.99952 25.51293 40.49585 55.90960 67.90809 85.22323 90.98333 97.11342 96.48931 96.49138 99.43846 99.54001 99.71925 99.95426 100.00128 100.24914 101.27519 100.10996 87.83224 42.93964 -106.17779 -155.38019 -202.23577 -339.47722 -673.01961 -1506.65256 -2692.78876 -3537.52034 -3900.79748 -3990.41103 -3999.99992 -4000.00004 -4000.00000 -4000.00000 -4000.00000 -4000.00000 -4000.00000 -4000.00000 -4000.00000 -4000.00000 -4000.00000 -4000.00000 -4000.00000 -4000.00000 -4000.00000 -4000.00000 -4000.00000 -4000.00000 -4000.00000 -4000.00000 -4000.50000
-1517.40000 -2476.02000 -2471.87013 -2728.81882 -2663.71762 -3130.76159 -3212.32362 -3449.61176 -3488.22372 -3701.60316 -3868.71742 -3924.45011 -3933.93772 -3982.00229 -3985.51000 -3975.28707 -3880.49592 -3569.47297 -3084.30323 -1777.29259 -1003.69638 -285.19917 -6.45861 138.27684 294.58128 415.64054 616.30580 722.54148 760.60662 801.02735 821.43548 891.64061 1041.43844 1108.91076 1170.87956 1196.99897 1199.76324 1200.00342 1200.00000 1200.00022 1200.00323 1200.00516 1199.17820 1191.90913 1144.69666 1062.26531 939.77530 705.50930 588.56991 495.86635 549.16840 591.41487 609.39259 720.45247 831.02513 1032.72320 1132.34791 1187.85602 1199.39039 1199.99920 1200.00195 1200.00000 1200.00000 1200.00040 1199.66176 1196.03148 1178.89292 1041.59050 848.80921 556.95490 422.89452 284.46001 177.08684 105.68560 81.24803 57.12622 52.76456 45.51947 37.00397 32.92135 30.66240 29.09185 26.67684 23.47057 21.30028 19.40549 18.32244 17.10118 16.49278 16.73229 17.47114 18.42192 26.29173 37.70068 61.66378 73.19492 86.07839 95.26198 96.66298 99.38497 99.42435 99.81062 99.97567 99.94309 99.98586 99.99985 99.99993 100.00567 100.19486 96.24828 84.95209 22.24817 -62.73861 -152.56475 -232.01234 -357.81861 -1087.16085 -1980.74080 -3059.44859 -3765.47120 -3940.73282 -3995.38689 -4000.08044 -4000.00000 -4000.00000 -4000.00000 -4000.00000 -4000.00000 -4000.00000 -4000.00000 -4000.00000 -4000.00000 -4000.00000 -4000.00000 -4000.00000 -4000.00000 -4000.00000 -4000.00000 -4000.00000 -4000.00000 -4000.00000 -4000.00000 -4000.50000
-2992.07000 -3435.14000 -3437.47474 -3330.12425 -3499.93810 -3670.01107 -3682.03500 -3801.01308 -3892.72682 -3966.16777 -3969.26855 -3992.07362 -3995.37806 -3997.50632 -3998.43874 -3998.42710 -3979.03161 -3818.95589 -3485.67650 -2410.48521 -1314.34223 -466.44584 -213.50903 -88.75785 77.57464 214.87109 453.00861 625.18702 731.43616 779.09050 839.62087 918.51398 1079.12819 1144.79804 1195.17372 1198.35235 1199.86600 1200.00593 1200.01308 1199.98473 1199.92856 1199.21850 1197.34558 1182.81301 1116.66317 1018.19636 844.66296 631.99910 485.28944 450.66451 411.90220 424.20626 518.53490 588.69198 705.94605 923.38554 1110.75351 1177.89428 1191.66312 1200.00783 1200.00000 1200.00000 1200.00000 1199.98737 1199.93091 1199.83369 1189.57592 1138.47578 1052.58847 860.33174 765.25102 501.84833 393.48996 223.08949 115.80537 84.31596 56.83162 51.64455 42.46405 39.35127 33.30321 31.52678 28.98371 25.06713 22.91411 20.23842 19.14099 18.81424 18.13641 17.83643 18.73795 25.79333 34.01777 58.45349 68.24294 82.18120 93.13119 99.67501 101.49129 104.25430 105.09464 102.79754 100.94061 100.25356 100.00000 100.00000 100.00000 100.00553 99.94275 96.37762 81.85210 41.80182 -73.63050 -141.54647 -234.51018 -590.03713 -1516.38301 -2449.63985 -3356.81280 -3917.07059 -3979.54937 -3997.62594 -4000.04029 -4000.00000 -4000.00000 -4000.00000 -4000.00000 -4000.00000 -4000.00000 -4000.00000 -4000.00000 -4000.00000 -4000.00000 -4000.00000 -4000.00000 -4000.00000 -4000.00000 -4000.00000 -4000.00000 -4000.00000 -4000.00000 -4000.00000 -4000.50000
-3765.34000 -3878.71000 -3842.12744 -3833.64993 -3898.55014 -3942.43698 -3944.55766 -3987.27283 -3986.95323 -3992.43025 -3998.75947 -3999.80914 -4000.01371 -4000.02788 -4000.00446 -3999.78546 -3996.00745 -3935.47589 -3622.86345 -2774.76582 -1906.29535 -812.50839 -355.41195 -183.76481 -113.58850 -44.02364 207.72578 505.54895 620.90568 779.06581 833.28116 942.43169 1082.49929 1154.65060 1194.30273 1197.44482 1198.25969 1197.83802 1198.42525 1198.22757 1198.99296 1196.71254 1190.16866 1165.00956 1079.44018 965.75430 759.76660 593.97573 422.90206 352.78294 336.33449 341.82892 415.51413 475.46021 630.64486 783.66574 1002.29401 1124.05869 1193.31976 1199.37083 1200.00000 1200.00000 1200.00000 1200.00000 1200.00000 1199.79027 1198.32649 1187.21757 1144.35425 1080.53559 985.96564 749.32082 659.14473 474.39188 251.87954 143.99020 68.86003 58.56937 48.71083 44.89164 38.83401 35.60546 31.31506 27.25392 23.94862 21.43918 19.74888 19.56183 19.26723 19.41331 20.67602 26.04581 38.35423 63.28231 80.74714 93.51392 99.23919 100.65366 109.63512 125.52538 128.74016 119.60295 107.69658 100.55675 99.99888 100.00000 100.00000 100.00000 99.95852 98.31683 87.98266 11.42465 -49.63095 -164.06180 -261.69960 -905.08548 -1710.17343 -2855.13139 -3651.05796 -3877.80307 -3987.60225 -3999.82710 -4000.00000 -4000.00000 -4000.00000 -4000.00000 -4000.00000 -4000.00000 -4000.00000 -4000.00000 -4000.00000 -4000.00000 -4000.00000 -4000.00000 -4000.00000 -4000.00000 -4000.00000 -4000.00000 -4000.00000 -4000.00000 -4000.00000 -4000.00000 -4000.50000
-3985.43000 -3992.58000 -3984.45372 -3981.15366 -3989.31135 -3996.63100 -3996.01134 -3997.05110 -3999.96338 -3999.92541 -4000.00687 -4000.00529 -3999.99914 -3999.99994 -3999.99989 -4000.04944 -3986.86052 -3932.34194 -3571.73298 -3156.49951 -1859.11534 -991.68447 -418.24758 -228.21245 -156.03480 -149.56669 1.58701 260.49569 477.57335 672.10617 788.16667 913.25069 1064.88413 1126.11142 1160.15140 1161.39125 1163.87896 1180.73466 1186.85990 1182.60867 1176.74938 1174.81756 1152.14355 1105.22741 1015.43041 884.04651 744.12754 557.52238 427.33274 341.44224 310.84804 311.02543 339.31138 427.58601 524.24699 705.79229 918.48228 1099.09651 1182.72626 1197.07540 1200.02789 1200.00839 1200.00000 1200.00000 1200.00000 1199.98604 1199.99629 1197.89497 1186.60627 1172.33969 1141.72835 1112.57640 961.97353 624.66197 416.90387 179.85992 82.91681 72.50550 61.51629 51.28158 50.26133 48.45373 39.55645 33.59915 25.84831 23.20196 20.98305 19.82979 19.87174 20.15399 23.43321 26.83527 45.91904 69.51345 84.52431 95.84072 99.40447 104.09523 122.81294 149.27139 160.46249 150.54262 120.76760 100.51301 100.13756 99.99627 100.00000 100.00028 99.99159 97.88660 87.17567 26.17037 -25.87048 -106.86578 -335.12663 -831.00741 -1996.71946 -3097.81325 -3595.10901 -3955.46176 -3999.49633 -4000.01886 -4000.00000 -4000.00000 -4000.00000 -4000.00000 -4000.00000 -4000.00000 -4000.00000 -4000.00000 -4000.00000 -4000.00000 -4000.00000 -4000.00000 -4000.00000 -4000.00000 -4000.00000 -4000.00000 -4000.00000 -4000.00000 -4000.00000 -4000.00000 -4000.50000
-4000.96000 -4000.23000 -3998.80736 -3999.59967 -3999.67712 -3999.93002 -4000.05841 -4000.05671 -4000.00865 -4000.00000 -4000.00000 -4000.00000 -4000.00000 -4000.00000 -4000.00000 -3999.10053 -3982.89230 -3799.74376 -3503.43347 -2797.49385 -1718.85070 -791.16663 -406.16321 -219.48430 -194.62662 -182.60532 -61.08869 77.49303 291.87283 506.86201 673.39056 879.32260 982.54687 1044.68415 1104.19071 1120.77150 1127.83032 1122.36637 1133.81069 1132.95072 1117.81603 1095.46269 1095.54699 994.83026 930.39413 838.42054 702.86355 521.85977 420.35942 335.83690 306.63132 303.41825 306.16804 330.29398 389.06331 605.32819 817.94300 1053.12896 1168.34211 1194.51803 1199.01473 1200.00628 1199.99882 1200.00000 1200.00000 1200.00000 1200.02265 1199.96787 1198.37872 1194.81023 1184.55039 1149.72119 1100.06849 855.80339 491.58665 273.67155 185.01684 124.47056 82.98304 75.71268 79.47530 69.15017 61.49036 43.73562 37.78286 27.80757 22.56640 20.89055 20.12749 20.58347 24.30003 31.14628 50.92909 70.46042 89.52335 95.68357 102.15676 115.66107 170.11122 228.44919 259.60925 206.82477 140.78607 106.12014 100.51744 99.99656 100.00000 100.00000 100.00124 98.59923 92.93128 64.72869 -17.12377 -96.89968 -409.70287 -826.11377 -2203.20451 -2886.58570 -3710.32307 -3941.24082 -3997.61459 -4000.07426 -4000.00000 -4000.00000 -4000.00000 -4000.00000 -4000.00000 -4000.00000 -4000.00000 -4000.00000 -4000.00000 -4000.00000 -4000.00000 -4000.00000 -4000.00000 -4000.00000 -4000.00000 -4000.00000 -4000.00000 -4000.00000 -4000.00000 -4000.00000 -4000.50000
-4000.50000 -4000.00000 -4000.01699 -4000.01909 -4000.00392 -4000.00149 -4000.00000 -4000.00000 -4000.00000 -4000.00000 -4000.00000 -4000.00000 -4000.00000 -4000.00000 -4000.00871 -3995.50100 -3972.02267 -3669.90646 -3240.99152 -2386.79863 -1292.46842 -719.36555 -332.73972 -217.94206 -199.18424 -182.77635 -136.08144 -94.04087 97.81110 260.75663 608.28535 769.53762 880.20511 964.17100 983.40256 1037.24988 1019.59483 1016.59517 1017.33703 1029.67603 1018.90051 1003.93565 958.66621 854.17164 799.89208 728.75113 631.42626 487.75159 403.55097 326.95587 306.89572 303.01171 304.54435 313.89034 392.76242 548.22490 743.25629 1025.42590 1094.62141 1172.98931 1190.59696 1199.77671 1199.63915 1199.98730 1199.80624 1199.78348 1199.71418 1198.89269 1198.02322 1183.19053 1168.01980 1123.59577 1065.02442 875.47086 565.09004 440.65929 321.26954 246.57654 196.10819 181.29245 132.79909 199.23208 135.09292 85.55775 49.50852 34.65211 28.20694 23.41222 20.86940 21.86436 25.91408 34.39123 53.84456 77.89176 89.98079 98.65324 111.33193 132.15810 218.49943 296.46820 309.01284 263.23572 142.60897 107.79462 100.49804 99.99827 100.00000 100.00000 100.00085 99.60726 98.47905 83.78241 18.77677 -65.66517 -211.64824 -850.73417 -1849.00104 -2678.26059 -3708.52686 -3932.03241 -3984.06898 -4000.10242 -4000.00787 -4000.00000 -4000.00000 -4000.00000 -4000.00000 -4000.00000 -4000.00000 -4000.00000 -4000.00000 -4000.00000 -4000.00000 -4000.00000 -4000.00000 -4000.00000 -4000.00000 -4000.00000 -4000.00000 -4000.00000 -4000.00000 -4000.00000 -4000.50000
-4000.50000 -4000.00000 -4000.00000 -4000.00000 -4000.00000 -4000.00000 -4000.00000 -4000.00000 -4000.00000 -4000.00000 -4000.00000 -4000.00000 -4000.00000 -4000.00000 -4000.05374 -3983.51995 -3905.80331 -3642.88202 -2677.64346 -1742.55107 -1029.44638 -371.30181 -303.46587 -202.83314 -200.32054 -198.44463 -184.70073 -139.57550 6.59499 90.92464 400.36760 581.89876 776.56412 831.58510 871.21364 883.92753 913.68237 919.77261 930.02604 903.36831 879.50496 886.05885 831.06513 757.84462 700.77926 570.74867 496.81688 429.51780 354.82115 325.07635 315.71754 315.66225 332.66431 342.39667 420.01497 534.68855 685.73654 919.71754 1055.47131 1140.34292 1158.44243 1182.01533 1193.87333 1196.50961 1199.40047 1196.51268 1194.44292 1198.38371 1178.28967 1145.60973 1093.35192 1007.87810 927.83564 762.89372 690.35004 549.50537 503.23761 409.81765 377.87510 326.04939 372.50081 383.26592 255.99206 183.03109 81.48799 46.82857 34.94655 29.95413 24.16786 25.39115 29.01687 41.71564 65.71734 88.01172 107.26514 108.85407 110.47348 150.57563 269.99547 342.03356 345.35378 230.19980 155.87171 106.65446 100.36709 99.99496 100.00000 100.00000 100.00110 99.96457 98.95509 80.11802 34.41300 -35.41402 -213.72029 -698.19641 -1447.40618 -2685.73650 -3345.72059 -3830.69127 -3948.08503 -3994.30606 -3997.90058 -4000.01656 -4000.00000 -4000.00000 -4000.00000 -4000.00000 -4000.00000 -4000.00000 -4000.00000 -4000.00000 -4000.00000 -4000.00000 -4000.00000 -4000.00000 -4000.00000 -4000.00000 -4000.00000 -4000.00000 -4000.00000 -4000.00000 -4000.50000
-4000.50000 -4000.00000 -4000.00000 -4000.00000 -4000.00000 -4000.00000 -4000.00000 -4000.00000 -4000.00000 -4000.00000 -4000.00000 -4000.00000 -4000.00000 -4000.00505 -4000.11323 -3982.27732 -3869.72031 -3437.66684 -2442.74795 -1618.84741 -738.22575 -327.96204 -255.82047 -204.07558 -199.91208 -199.22935 -198.76090 -185.34394 -149.36847 23.09420 226.00539 524.26681 655.99390 766.48495 790.61635 801.48180 773.87028 754.44309 763.91082 736.00248 712.68541 695.58895 701.29969 658.02360 518.74117 455.99354 402.84205 351.36147 329.02686 322.76129 340.47575 358.74282 362.75977 482.61293 506.38496 620.55248 775.20658 886.91793 979.68033 1061.53298 1122.59308 1141.01195 1171.10029 1176.56106 1187.30410 1185.80714 1158.03540 1146.07801 1142.20742 1081.35619 937.45616 844.19876 815.45859 740.66400 690.95503 659.03820 601.87874 559.53594 573.25010 597.53902 680.87170 569.48388 458.20345 259.59686 97.62657 64.78702 47.24260 39.36940 35.86412 32.27119 36.43884 52.83449 92.56093 125.07196 147.37076 142.93491 138.11684 184.42583 286.58754 337.38574 280.45231 157.18663 146.64598 105.05250 100.14560 100.00512 100.00000 100.00000 100.00000 99.99320 98.29967 88.80379 59.26682 -30.47305 -166.37926 -567.54229 -1085.06021 -1879.80295 -3140.20073 -3488.22508 -3787.56592 -3986.79193 -3992.26761 -3999.66978 -4000.00611 -4000.00000 -4000.00000 -4000.00000 -4000.00000 -4000.00000 -4000.00000 -4000.00000 -4000.00000 -4000.00000 -4000.00000 -4000.00000 -4000.00000 -4000.00000 -4000.00000 -4000.00000 -4000.00000 -4000.00000 -4000.50000
-4000.50000 -4000.00000 -4000.00000 -4000.00000 -4000.00000 -4000.00000 -4000.00000 -4000.00000 -4000.00000 -4000.00000 -4000.00000 -4000.00000 -4000.00000 -4000.00364 -3999.82072 -3977.24015 -3835.72786 -3519.42291 -2410.94664 -1854.90652 -958.78063 -594.05241 -288.46948 -225.88788 -202.12820 -200.18077 -199.53270 -194.55442 -176.16977 -81.60599 8.95022 258.72454 591.08758 696.17140 730.19922 657.02748 607.74105 577.70307 573.33465 587.49736 590.64580 471.00225 426.44145 412.98425 420.98891 351.50896 336.61515 337.37741 365.08635 394.08853 437.03342 470.35012 517.79914 567.77782 649.69349 800.80340 880.84247 959.66004 955.08497 971.82555 1010.18039 1033.67195 1068.26997 1127.47629 1116.63766 1101.78979 1093.84053 1098.50388 1038.87018 962.39691 829.54622 786.28267 732.76713 702.05475 697.12734 685.23471 676.87323 666.59574 665.44374 716.80210 746.02160 703.75570 455.93968 246.56754 117.49999 62.32667 53.25188 50.26564 47.46131 46.23141 52.84003 96.09841 164.36994 225.57504 232.95282 207.75939 197.16908 190.18406 282.28519 289.62126 235.87929 132.47236 109.38120 101.51570 100.00778 100.00000 100.00000 100.00000 100.00000 100.01034 99.40713 89.24014 47.33230 -48.91912 -122.60797 -274.74473 -707.96571 -1487.03534 -2126.32852 -3075.33004 -3509.09175 -3808.24000 -3988.43198 -4000.06462 -4000.03340 -4000.00000 -4000.00000 -4000.00000 -4000.00000 -4000.00000 -4000.00000 -4000.00000 -4000.00000 -4000.00000 -4000.00000 -4000.00000 -4000.00000 -4000.00000 -4000.00000 -4000.00000 -4000.00000 -4000.00000 -4000.50000
-4000.50000 -4000.00000 -4000.00000 -4000.00000 -4000.00000 -4000.00000 -4000.00000 -4000.00000 -4000.00000 -4000.00000 -4000.00000 -4000.00000 -4000.00000 -4000.00000 -3999.71521 -3989.83225 -3901.71580 -3785.35796 -3256.31997 -2324.41819 -1439.80225 -929.09887 -453.65856 -257.84307 -226.34574 -200.87459 -200.00191 -199.71246 -189.30814 -164.06367 -58.21878 110.25756 367.88332 644.06371 608.58696 518.96649 362.19797 269.46251 316.95581 308.33221 295.71776 322.11313 292.01778 255.03569 262.61752 278.97833 321.58787 374.41479 441.57949 491.37096 540.76380 593.44775 629.71458 714.28785 830.68050 968.19287 999.43544 1053.22578 1018.55875 973.76116 936.63023 899.93630 937.78885 983.24893 970.80389 925.45453 923.32068 868.52646 879.64379 815.04244 755.98443 714.95920 701.81823 699.21429 692.02623 677.22300 645.11389 631.26366 627.33831 688.76469 763.81707 631.51538 433.22871 208.30068 110.51084 65.52387 57.58789 56.40256 54.81795 58.05675 75.37893 135.51529 241.96650 327.68274 356.20654 305.03680 222.65001 204.30725 195.36272 204.90027 155.79771 125.07802 105.65067 100.42308 99.99978 100.00000 100.00000 100.00000 100.00000 100.00953 99.03092 94.52308 59.13996 10.33431 -125.98993 -242.13777 -499.04667 -754.82874 -1381.68460 -1987.62744 -3149.29840 -3653.51298 -3944.56665 -3996.49820 -4000.01248 -4000.00000 -4000.00000 -4000.00000 -4000.00000 -4000.00000 -4000.00000 -4000.00000 -4000.00000 -4000.00000 -4000.00000 -4000.00000 -4000.00000 -4000.00000 -4000.00000 -4000.00000 -4000.00000 -4000.00000 -4000.50000
-4000.50000 -4000.00000 -4000.00000 -4000.00000 -4000.00000 -4000.00000 -4000.00000 -4000.00000 -4000.00000 -4000.00000 -4000.00000 -4000.00000 -4000.00000 -4000.00000 -3999.89175 -3999.71019 -3964.73324 -3871.09180 -3565.26670 -3177.50671 -2233.41861 -1619.47058 -1058.35990 -339.16277 -252.25774 -202.29192 -200.00173 -199.71209 -199.56623 -187.10323 -124.02007 -8.11355 238.56658 482.04539 508.05823 259.05758 167.62464 87.68724 79.58043 97.62870 150.82728 122.41449 110.20211 117.00128 161.72058 219.50481 382.98384 456.28395 538.21370 602.89506 643.43369 655.01982 720.83268 757.98289 926.86376 1055.00558 1123.49019 1126.73352 1082.11385 988.93505 920.64532 860.90297 828.62020 827.26438 852.00532 827.22195 782.16940 765.09820 752.99421 745.64055 720.65638 694.22662 684.75794 673.10231 641.91975 612.94431 582.62770 571.34334 543.89958 559.72453 573.77435 412.90979 322.23156 153.25737 75.97853 60.76900 59.92828 59.62825 59.62546 66.91859 107.77381 162.37171 305.24795 425.48727 479.23417 423.59592 230.85988 179.94304 154.94728 146.28112 119.09311 104.97128 100.04549 100.18668 100.00000 100.00000 100.00000 100.00000 100.00000 100.00000 99.74232 98.72804 82.84169 29.89607 -68.66930 -159.92448 -206.41877 -401.26184 -909.19325 -1833.35797 -2834.80722 -3431.86014 -3894.88435 -3996.11441 -3999.60253 -4000.00973 -4000.00000 -4000.00000 -4000.00000 -4000.00000 -4000.00000 -4000.00000 -4000.00000 -4000.00000 -4000.00000 -4000.00000 -4000.00000 -4000.00000 -4000.00000 -4000.00000 -4000.00000 -4000.00000 -4000.50000
-4000.50000 -4000.00000 -4000.00000 -4000.00000 -4000.00000 -4000.00000 -4000.00000 -4000.00000 -4000.00000 -4000.00000 -4000.00000 -4000.00000 -4000.00000 -4000.00000 -4000.00004 -3999.88142 -3986.25866 -3962.80102 -3909.59366 -3689.61683 -3012.96455 -2129.81287 -1287.99635 -670.47309 -415.70229 -201.17826 -200.47141 -199.99177 -199.76122 -192.46517 -157.07258 -51.31487 35.24599 242.54626 300.63368 122.55921 -18.83533 -113.70202 -89.78790 -68.15148 -35.14830 11.48772 40.19658 61.14484 120.17688 226.08462 413.03584 555.64154 637.86850 675.61114 681.39276 715.16652 793.95824 890.21819 1058.28805 1152.65249 1177.86687 1185.28691 1160.06691 1106.89445 1001.45749 897.88597 797.29736 766.70562 738.55788 727.18385 725.68318 722.98111 698.96752 682.31563 675.84087 672.26539 651.61399 624.62639 591.57634 535.73860 456.05436 427.62691 389.45630 415.96859 427.06959 260.14599 205.83719 105.27471 65.49919 60.93709 59.99117 60.16109 63.86808 73.45465 134.31078 270.89949 437.06029 506.07904 521.46663 406.01119 260.55059 160.54180 128.42017 113.02378 103.64343 100.40395 100.05195 100.00000 100.00000 100.00000 100.00000 100.00000 100.00000 100.00000 99.96065 96.58504 85.88826 50.79378 -36.58249 -127.70756 -187.64962 -347.00445 -611.34466 -1225.27746 -2517.54403 -3497.11255 -3864.00747 -3980.81580 -3999.17548 -4000.00826 -4000.00000 -4000.00000 -4000.00000 -4000.00000 -4000.00000 -4000.00000 -4000.00000 -4000.00000 -4000.00000 -4000.00000 -4000.00000 -4000.00000 -4000.00000 -4000.00000 -4000.00000 -4000.00000 -4000.50000
-4000.50000 -4000.00000 -4000.00000 -4000.00000 -4000.00000 -4000.00000 -4000.00000 -4000.00000 -4000.00000 -4000.00000 -4000.00000 -4000.00000 -4000.00000 -4000.00000 -4000.00043 -3999.81832 -3998.12020 -3988.75101 -3939.31386 -3720.95576 -3520.91351 -2728.67803 -1721.73546 -970.40647 -451.45200 -225.05091 -201.71146 -200.10163 -199.87041 -197.11723 -175.23475 -106.61578 -33.46353 82.06579 86.64803 6.47149 -109.70324 -172.10453 -166.52884 -134.88621 -103.58557 -67.56513 -28.06419 35.32043 150.70114 280.57033 480.57359 604.83749 676.49370 695.11472 710.44816 734.76318 851.63664 976.04722 1086.44096 1171.66723 1194.09341 1196.78290 1184.49246 1162.32105 1068.46236 925.09618 815.52323 740.83922 706.46697 700.22891 688.78106 672.97249 657.14658 641.20887 595.78857 575.76608 530.62038 489.19322 460.35563 415.08700 374.79536 350.03396 301.45958 282.39916 219.80242 155.43572 111.34524 72.41759 60.29556 60.12020 59.99588 60.34515 71.33333 100.52569 206.40364 355.17894 505.03509 577.92173 527.02774 446.90014 257.18691 177.01828 108.04065 102.52362 100.55231 100.16636 99.99992 100.00000 100.00000 100.00000 100.00000 100.00000 100.00000 100.00000 99.97072 99.27569 87.53451 62.78538 -10.50079 -102.29830 -173.10496 -265.76685 -606.34891 -1396.64757 -2820.36172 -3372.09926 -3851.10087 -3986.28090 -3999.53516 -4000.00243 -4000.00000 -4000.00000 -4000.00000 -4000.00000 -4000.00000 -4000.00000 -4000.00000 -4000.00000 -4000.00000 -4000.00000 -4000.00000 -4000.00000 -4000.00000 -4000.00000 -4000.00000 -4000.00000 -4000.50000
-4000.50000 -4000.00000 -4000.00000 -4000.00000 -4000.00000 -4000.00000 -4000.00000 -4000.00000 -4000.00000 -4000.00000 -4000.00000 -4000.00000 -4000.00000 -4000.00000 -4000.00000 -4000.00566 -4000.00267 -4000.16799 -3993.61895 -3917.93558 -3784.49155 -3014.33348 -1963.18999 -1176.55015 -482.16537 -258.28002 -206.83120 -202.76399 -199.90833 -200.33217 -200.77061 -180.23822 -133.06939 -92.64026 -77.83327 -123.31489 -151.88228 -186.81290 -191.95905 -185.85753 -157.37479 -114.15202 -46.16373 12.29180 199.97226 352.78697 562.60463 643.69269 690.36109 709.63797 762.06340 810.62013 954.69860 1063.28212 1142.63960 1187.01147 1198.57012 1199.54975 1196.41176 1180.49597 1117.48463 942.65340 831.68972 738.45132 701.15956 671.96394 633.71226 619.55079 613.12131 518.40900 492.97388 453.32136 442.98791 376.65358 380.72668 333.62284 318.00544 304.00950 245.84276 209.79249 106.13786 93.18998 69.41569 62.06037 60.19774 59.99852 59.99870 60.45815 68.57942 138.33522 228.52631 431.96522 539.06109 596.68347 557.29203 401.73839 296.97108 155.15170 114.23606 102.14540 100.10312 100.00063 100.00000 100.00000 100.00000 100.00000 100.00000 100.00000 100.00000 100.00000 100.00294 99.54020 96.41394 70.93563 23.13187 -72.98724 -144.16792 -294.65887 -670.56431 -1332.28573 -2675.62239 -3524.87610 -3899.01875 -3983.69966 -3999.90024 -4000.00000 -4000.00000 -4000.00000 -4000.00000 -4000.00000 -4000.00000 -4000.00000 -4000.00000 -4000.00000 -4000.00000 -4000.00000 -4000.00000 -4000.00000 -4000.00000 -4000.00000 -4000.00000 -4000.00000 -4000.50000
-4000.50000 -4000.00000 -4000.00000 -4000.00000 -4000.00000 -4000.00000 -4000.00000 -4000.00000 -4000.00000 -4000.00000 -4000.00000 -4000.00000 -4000.00000 -4000.00000 -4000.00000 -4000.00000 -4000.00268 -4000.12340 -3997.66234 -3966.99548 -3652.78276 -3150.26030 -2003.42552 -1133.98805 -470.59351 -254.08958 -217.07788 -217.44150 -219.72235 -266.34022 -253.07272 -256.66748 -229.87812 -197.57053 -170.47972 -178.50823 -190.01227 -198.74019 -199.70805 -197.10373 -175.77261 -150.58506 -71.82182 25.01577 222.23229 358.34446 578.70527 675.74861 712.23817 747.15898 802.79490 873.76917 1034.24408 1096.20831 1179.92639 1195.55214 1199.43684 1199.90379 1197.68616 1186.71016 1116.39806 1003.05379 831.59450 721.81362 683.51433 638.93071 576.40282 516.29133 435.03014 405.69578 402.28096 384.73140 345.68540 329.89139 320.24126 306.48300 301.89915 291.23821 248.41186 192.09549 111.36559 70.98067 63.66894 60.10615 59.99746 60.00000 59.99988 60.87632 71.20603 137.18608 228.48309 448.48211 583.08650 633.40038 584.02610 451.10917 324.96797 159.50010 126.66782 101.12640 100.06002 100.00000 100.00000 100.00000 100.00000 100.00000 100.00000 100.00000 100.00031 100.00121 99.96320 99.80706 96.82273 80.26226 48.93167 -45.81247 -141.71379 -389.22470 -989.68125 -1827.32794 -2910.13577 -3611.44868 -3953.00681 -3994.20627 -4000.01646 -4000.00261 -4000.00000 -4000.00000 -4000.00000 -4000.00000 -4000.00000 -4000.00000 -4000.00000 -4000.00000 -4000.00000 -4000.00000 -4000.00000 -4000.00000 -4000.00000 -4000.00000 -4000.00000 -4000.00000 -4000.50000
-4000.50000 -4000.00000 -4000.00000 -4000.00000 -4000.00000 -4000.00000 -4000.00000 -4000.00000 -4000.00000 -4000.00000 -4000.00000 -4000.00000 -4000.00000 -4000.00000 -4000.00000 -4000.00025 -4000.00458 -3999.94884 -3993.52354 -3955.08948 -3448.55262 -3059.49577 -1907.54838 -1004.52027 -586.23903 -389.55589 -538.17484 -472.95836 -426.12029 -602.29633 -433.90446 -459.25694 -440.86349 -433.16931 -308.24623 -278.96510 -216.75535 -200.82320 -199.93001 -198.78035 -186.09899 -163.06510 -70.40905 55.04376 277.18456 511.24111 619.32095 722.43361 753.12323 858.42412 885.40088 1029.76892 1103.12582 1164.90083 1189.76391 1198.68296 1199.55797 1198.55006 1194.89530 1178.39531 1110.70933 977.09769 874.17252 711.98840 654.74876 544.21278 450.09281 372.74883 343.41714 345.34828 327.10641 317.96038 310.25452 302.93426 303.03154 299.58049 298.29405 277.86381 224.91401 171.13003 112.11848 68.29780 61.78615 60.09303 60.00060 60.00000 59.99985 61.11139 66.39161 102.45439 247.36306 441.82869 621.20027 651.02409 610.44949 368.31017 261.62899 157.28382 117.70114 100.98644 99.98864 100.00000 100.00000 100.00000 100.00000 100.00000 100.00215 100.01294 99.84783 99.75128 98.66742 97.21549 95.41115 85.76858 59.64181 -30.01412 -146.59597 -554.54943 -1202.57803 -2131.36228 -3318.63009 -3810.71910 -3976.74942 -3998.91252 -4000.01718 -4000.00000 -4000.00000 -4000.00000 -4000.00000 -4000.00000 -4000.00000 -4000.00000 -4000.00000 -4000.00000 -4000.00000 -4000.00000 -4000.00000 -4000.00000 -4000.00000 -4000.00000 -4000.00000 -4000.00000 -4000.50000
-4000.50000 -4000.00000 -4000.00000 -4000.00000 -4000.00000 -4000.00000 -4000.00000 -4000.00000 -4000.00000 -4000.00000 -4000.00000 -4000.00000 -4000.00000 -4000.00000 -4000.00000 -4000.00000 -4000.00734 -3999.72572 -3985.41146 -3865.88565 -3571.15074 -2630.10813 -1726.30851 -984.04067 -812.71402 -1003.48137 -911.83464 -894.70955 -1166.95213 -1072.11613 -1208.79542 -1228.79840 -1489.40109 -903.17629 -710.61192 -469.57305 -242.72321 -203.61914 -200.55888 -199.93914 -193.51452 -155.18534 -92.19710 153.94237 329.81792 526.32324 689.32288 753.33420 786.70584 902.77672 971.43561 1106.86090 1157.67302 1184.72291 1196.94647 1198.36822 1195.77649 1193.99129 1180.95742 1163.01215 1085.27143 943.10129 827.68547 732.54570 582.15054 517.51006 401.47591 339.46775 314.51215 308.41232 303.56832 302.89262 300.68260 300.23791 300.15616 298.71251 291.82443 264.68455 194.70443 146.78664 97.52259 75.87121 61.86705 60.07829 60.00134 59.99926 59.99887 61.60836 65.43590 103.69308 255.41798 510.73786 602.02074 629.06280 546.84266 366.19159 225.10252 135.83333 108.50526 100.24652 99.99145 100.00000 100.00000 100.00000 99.99783 100.00178 99.92703 99.69109 98.10053 96.70885 90.00959 85.51494 75.05266 69.90556 41.04848 -24.66417 -152.43641 -595.65764 -1381.64817 -2289.21928 -3484.79557 -3920.71977 -3980.54821 -3999.10605 -4000.01006 -4000.00000 -4000.00000 -4000.00000 -4000.00000 -4000.00000 -4000.00000 -4000.00000 -4000.00000 -4000.00000 -4000.00000 -4000.00000 -4000.00000 -4000.00000 -4000.00000 -4000.00000 -4000.00000 -4000.00000 -4000.50000
-4000.50000 -4000.00000 -4000.00000 -4000.00000 -4000.00000 -4000.00000 -4000.00000 -4000.00000 -4000.00000 -4000.00000 -4000.00000 -4000.00000 -4000.00000 -4000.00000 -4000.00000 -3999.99974 -4000.00494 -3999.54495 -3988.21689 -3931.11813 -3563.99167 -2929.42048 -2038.85621 -1548.62778 -1486.60266 -1567.02683 -1966.68054 -1851.42419 -1871.49983 -2010.11054 -2276.57841 -2069.37968 -2004.93837 -1812.35781 -1285.12049 -698.72482 -403.98685 -228.74248 -201.54560 -199.76179 -198.56771 -146.79669 -96.19378 170.54510 361.81641 606.45312 720.37402 825.57266 922.91999 968.12034 1090.05308 1153.72767 1181.22053 1194.51950 1198.05604 1192.93995 1185.27614 1164.60535 1145.34527 1113.99717 1030.94268 899.79865 802.05402 757.16976 541.90893 473.90008 360.17621 311.79546 303.72543 300.57274 300.06723 300.06376 300.00033 299.97544 299.30211 294.55610 275.03102 226.36240 171.40614 116.59419 92.81025 66.88603 61.25457 60.25220 60.02152 60.00115 60.54202 63.70062 74.89570 133.74232 283.02986 484.05249 574.49628 608.29275 483.29590 296.12924 165.19836 127.97150 104.85357 100.23710 100.00044 100.00122 100.00120 99.98225 99.93138 99.06790 97.71716 93.05374 90.83554 79.87576 71.37676 49.33050 38.03151 38.61506 22.12253 -11.02441 -117.35354 -633.31513 -1765.31346 -2742.01013 -3624.13047 -3904.39704 -3989.62444 -4000.00870 -4000.00157 -4000.00000 -4000.00000 -4000.00000 -4000.00000 -4000.00000 -4000.00000 -4000.00000 -4000.00000 -4000.00000 -4000.00000 -4000.00000 -4000.00000 -4000.00000 -4000.00000 -4000.00000 -4000.00000 -4000.00000 -4000.50000
-4000.50000 -4000.00000 -4000.00000 -4000.00000 -4000.00000 -4000.00000 -4000.00000 -4000.00000 -4000.00000 -4000.00000 -4000.00000 -4000.00000 -4000.00000 -4000.00000 -4000.00000 -4000.00000 -3999.99959 -3999.77301 -3993.80403 -3945.63755 -3702.45909 -3342.40494 -2868.01970 -2626.04963 -2590.94786 -2860.59457 -3065.44642 -3256.66098 -3229.00015 -3304.79702 -3069.90252 -3391.93180 -3075.49776 -2923.83550 -2013.72003 -1237.14846 -607.63702 -257.42338 -215.01012 -199.91593 -197.01623 -168.56463 -98.29022 42.81394 327.74879 538.43831 707.63961 857.28007 967.35029 1061.54979 1142.38837 1179.87279 1194.61443 1197.73508 1192.09385 1180.97903 1144.72701 1124.06689 1092.01951 1052.28264 992.57401 950.48258 808.37807 718.87893 572.92319 470.79563 354.57369 306.66452 301.15413 299.97133 299.98064 299.99686 300.00137 300.00243 295.51001 289.19528 262.08433 206.43532 149.28694 99.26844 76.57472 68.57326 63.18755 60.47072 60.03749 60.24294 60.46486 75.81710 101.38876 144.71479 293.74452 424.39774 546.71752 515.64546 397.05457 283.31329 131.66351 106.46019 100.56110 100.00696 99.99923 99.99039 99.94401 98.96980 99.49916 96.04718 90.03812 73.39666 69.74602 36.75885 -7.94492 -21.16054 -56.73072 -68.65151 -61.98641 -64.79462 -245.29584 -907.79570 -1410.96794 -3127.99071 -3696.23222 -3949.63877 -3991.70777 -3999.35723 -4000.00000 -4000.00000 -4000.00000 -4000.00000 -4000.00000 -4000.00000 -4000.00000 -4000.00000 -4000.00000 -4000.00000 -4000.00000 -4000.00000 -4000.00000 -4000.00000 -4000.00000 -4000.00000 -4000.00000 -4000.00000 -4000.50000
-4000.50000 -4000.00000 -4000.00000 -4000.00000 -4000.00000 -4000.00000 -4000.00000 -4000.00000 -4000.00000 -4000.00000 -4000.00000 -4000.00000 -4000.00000 -4000.00000 -4000.00000 -4000.00000 -4000.00000 -3999.99987 -3998.19952 -3987.64531 -3915.94235 -3625.52189 -3597.09897 -3505.74409 -3354.62060 -3562.89480 -3630.14807 -3677.75832 -3688.88688 -3737.77689 -3869.68403 -3804.98794 -3712.42729 -3569.69261 -2561.84757 -1567.38027 -859.32339 -335.02071 -228.63876 -201.54697 -197.72543 -184.58026 -127.88109 -19.83236 197.49244 450.51614 596.47219 872.17692 970.17603 1073.26177 1128.72672 1179.70835 1190.29940 1193.82127 1171.62893 1143.76419 1119.81533 1066.89199 1042.59203 1016.52426 964.71645 930.89888 870.52391 793.78985 644.81988 462.87052 351.50624 311.45022 300.76415 300.19219 299.99876 300.00000 300.00194 299.65374 294.61528 292.95673 242.61400 168.30785 125.09207 87.29034 77.96144 69.38465 64.04162 60.85540 60.22330 60.29684 65.55313 77.60640 116.32660 143.22847 272.23866 361.44439 426.80834 434.45318 318.36218 208.29771 128.72170 100.69094 99.99361 99.96567 99.75353 99.05897 96.58350 94.15073 86.86395 66.30240 55.96419 40.27596 -24.91551 -21.44358 -68.05105 -92.94689 -115.63650 -116.83030 -130.79411 -151.83804 -433.35253 -704.98614 -1943.85093 -3336.42466 -3725.63490 -3956.18576 -3998.09610 -4000.10922 -4000.00000 -4000.00000 -4000.00000 -4000.00000 -4000.00000 -4000.00000 -4000.00000 -4000.00000 -4000.00000 -4000.00000 -4000.00000 -4000.00000 -4000.00000 -4000.00000 -4000.00000 -4000.00000 -4000.00000 -4000.00000 -4000.50000
-4000.50000 -4000.00000 -4000.00000 -4000.00000 -4000.00000 -4000.00000 -4000.00000 -4000.00000 -4000.00000 -4000.00000 -4000.00000 -4000.00000 -4000.00000 -4000.00000 -4000.00000 -4000.00000 -4000.00000 -4000.01504 -4000.03453 -3993.22610 -3992.05578 -3913.54782 -3873.23226 -3826.31037 -3861.94669 -3907.26480 -3954.39665 -3977.15573 -3967.22208 -3977.52135 -3978.34944 -3986.09777 -3921.76524 -3826.42338 -3115.48155 -2056.70301 -1271.01923 -499.90187 -246.13715 -209.05175 -199.24306 -195.83424 -185.55355 -85.03459 13.63962 278.08219 532.24059 834.72082 968.81637 1052.88202 1091.77241 1150.40738 1160.66594 1166.23246 1142.25309 1105.56322 1057.03762 991.10250 980.75155 975.49981 950.30283 918.95136 897.44964 834.35113 715.90600 579.29105 426.65040 346.53828 309.34894 300.65364 299.99431 299.99592 300.00057 298.61687 294.91602 270.13660 200.32599 163.69999 106.44520 85.14362 76.04156 71.04543 64.62988 61.50173 60.16054 61.05404 65.12528 102.91980 134.91772 155.64018 183.82033 225.88722 277.98283 317.07326 220.27691 161.35949 108.04782 100.10627 99.20219 97.83157 94.03787 91.98343 88.95301 77.04707 54.53515 14.67990 2.88082 -67.85514 -96.19265 -106.65242 -152.65231 -168.43457 -193.03039 -192.41384 -181.03099 -237.56503 -413.92764 -975.16407 -2179.24811 -3194.38188 -3733.18922 -3960.88873 -3998.02990 -4000.02759 -4000.00000 -4000.00000 -4000.00000 -4000.00000 -4000.00000 -4000.00000 -4000.00000 -4000.00000 -4000.00000 -4000.00000 -4000.00000 -4000.00000 -4000.00000 -4000.00000 -4000.00000 -4000.00000 -4000.00000 -4000.00000 -4000.50000
-4000.50000 -4000.00000 -4000.00000 -4000.00000 -4000.00000 -4000.00000 -4000.00000 -4000.00000 -4000.00000 -4000.00000 -4000.00000 -4000.00000 -4000.00000 -4000.00000 -4000.00000 -4000.00000 -4000.00000 -4000.00000 -4000.00282 -3999.31527 -3995.98370 -3993.32806 -3987.09095 -3980.70427 -3981.33017 -3968.66332 -3990.64345 -3997.36163 -3998.76474 -3999.50059 -3998.15179 -3994.72283 -3968.61803 -3843.70747 -3371.26070 -2565.29070 -1513.73645 -753.33580 -342.35685 -213.43317 -201.38821 -198.59650 -193.93050 -131.19383 -96.18234 121.32459 375.02468 760.48603 943.33707 1024.17980 1074.40680 1105.37951 1131.71849 1128.27802 1103.51900 1052.31154 991.69690 955.30219 852.77697 866.38087 876.68327 886.29858 887.84856 865.37511 783.34931 687.62418 517.98736 391.52558 351.11629 309.10517 304.67890 299.97869 299.97892 299.04481 289.64521 260.09518 209.25836 134.93659 96.98473 81.14967 77.91106 71.80377 66.63169 62.14599 60.18378 61.11175 75.69769 110.37760 164.26417 175.08349 146.51404 130.21172 160.86416 197.73168 165.91970 137.84356 104.85567 100.26242 97.76011 87.96814 80.26835 47.90590 43.79940 27.22526 -18.56450 -50.23325 -96.78371 -139.94104 -157.29612 -179.66485 -192.10538 -203.93771 -226.31896 -220.47859 -248.94029 -446.95932 -617.63852 -1446.43525 -2258.58544 -3346.33879 -3819.29001 -3972.60016 -3998.87521 -4000.00802 -4000.00000 -4000.00000 -4000.00000 -4000.00000 -4000.00000 -4000.00000 -4000.00000 -4000.00000 -4000.00000 -4000.00000 -4000.00000 -4000.00000 -4000.00000 -4000.00000 -4000.00000 -4000.00000 -4000.00000 -4000.00000 -4000.50000
-4000.50000 -4000.00000 -4000.00000 -4000.00000 -4000.00000 -4000.00000 -4000.00000 -4000.00000 -4000.00000 -4000.00000 -4000.00000 -4000.00000 -4000.00000 -4000.00000 -4000.00000 -4000.00000 -4000.00000 -4000.00000 -4000.00000 -4000.01136 -4000.00554 -4000.03862 -3999.92223 -3999.99177 -3999.21657 -3998.75782 -4000.02842 -4000.05420 -4000.01418 -4000.00293 -4000.01466 -4000.05855 -3988.79503 -3948.43570 -3723.80234 -2913.27243 -2056.38027 -1042.28998 -418.71659 -244.92493 -202.94107 -199.67766 -192.28145 -173.22260 -120.58391 -13.70211 290.02591 647.08303 872.15085 975.50154 1021.26632 1050.15930 1070.79007 1045.45359 1038.35169 970.59862 924.73301 691.04183 716.52334 706.42674 743.63913 832.52746 881.33520 887.74937 838.56951 778.82994 656.94247 550.07788 396.56773 352.71662 308.47260 301.37759 300.43137 299.47559 288.56721 258.75138 202.14151 138.53787 90.90733 80.44102 78.11608 73.98679 66.67106 63.14560 60.59453 63.79020 77.67547 136.02032 192.28991 204.45525 147.56111 98.27492 117.18220 127.92124 120.83530 107.28779 102.46051 95.78666 86.66823 55.92603 24.96136 -39.74776 -21.25130 -73.10104 -108.66922 -121.89088 -144.85721 -177.53635 -199.85439 -222.26994 -251.26755 -304.66806 -347.00903 -407.35493 -639.65822 -751.71362 -1160.52281 -2243.76477 -2539.24505 -3575.13107 -3913.49807 -3989.91223 -3999.53803 -4000.00059 -4000.00000 -4000.00000 -4000.00000 -4000.00000 -4000.00000 -4000.00000 -4000.00000 -4000.00000 -4000.00000 -4000.00000 -4000.00000 -4000.00000 -4000.00000 -4000.00000 -4000.00000 -4000.00000 -4000.00000 -4000.00000 -4000.50000
-4000.50000 -4000.00000 -4000.00000 -4000.00000 -4000.00000 -4000.00000 -4000.00000 -4000.00000 -4000.00000 -4000.00000 -4000.00000 -4000.00000 -4000.00000 -4000.00000 -4000.00000 -4000.00000 -4000.00000 -4000.00000 -4000.00000 -4000.00000 -4000.00000 -4000.00006 -3999.97145 -4000.01235 -4000.01414 -4000.00305 -4000.00000 -4000.01084 -4000.00066 -4000.00000 -4000.00000 -4000.02669 -3999.33254 -3979.30197 -3857.15734 -3357.34446 -2611.94968 -1393.07796 -736.43667 -295.94391 -208.67050 -199.87402 -196.95406 -191.81762 -155.63128 -10.42922 79.47354 442.08103 851.11285 959.74593 1000.48374 1006.68557 1011.39094 988.57726 892.85830 751.67907 621.93441 497.78018 435.18369 408.16738 587.84001 704.96483 832.00120 892.83136 911.23222 873.35753 808.69684 676.34299 590.12326 434.47637 379.22987 323.59085 310.89984 300.67932 291.83680 263.83526 209.99117 146.66949 95.21772 83.07820 77.81745 74.13106 67.74968 63.30584 60.52947 62.19598 74.50170 146.64589 221.82226 228.25838 177.50505 96.39826 80.29358 95.42303 102.59268 102.64806 96.90894 83.28657 54.46521 12.85967 -42.05400 -97.16295 -123.14695 -141.63137 -169.53439 -180.37132 -211.35655 -244.22466 -302.69172 -306.89186 -347.57030 -650.78644 -1001.81221 -1057.55871 -1344.31890 -1803.34350 -2296.85835 -2554.41208 -3362.71353 -3783.68164 -3964.01847 -3998.35961 -4000.00249 -3999.99916 -4000.00000 -4000.00000 -4000.00000 -4000.00000 -4000.00000 -4000.00000 -4000.00000 -4000.00000 -4000.00000 -4000.00000 -4000.00000 -4000.00000 -4000.00000 -4000.00000 -4000.00000 -4000.00000 -4000.00000 -4000.00000 -4000.50000
-4000.50000 -4000.00000 -4000.00000 -4000.00000 -4000.00000 -4000.00000 -4000.00000 -4000.00000 -4000.00000 -4000.00000 -4000.00000 -4000.00000 -4000.00000 -4000.00000 -4000.00000 -4000.00000 -4000.00000 -4000.00000 -4000.00000 -4000.00000 -4000.00000 -4000.00000 -4000.00000 -4000.00000 -4000.00000 -4000.00000 -4000.00000 -4000.00000 -4000.00000 -4000.00000 -4000.00000 -4000.00000 -3999.86453 -3993.11933 -3889.19769 -3503.61614 -3028.43480 -1723.26286 -943.03148 -265.68579 -209.35917 -201.31788 -198.63392 -192.49950 -160.70710 -77.16417 61.56588 432.50314 641.72805 905.17890 973.49775 961.62474 928.96272 929.41071 735.09692 548.94799 297.23078 205.78516 125.02122 188.08143 424.68611 572.99015 786.30710 873.87410 931.36438 964.09949 976.98463 926.35686 798.14696 623.95105 447.48170 381.31050 328.84088 311.10631 297.21932 276.39569 203.23426 151.40164 102.68985 82.67866 78.42857 74.10077 67.83194 62.86694 59.96128 61.46975 77.33378 127.10113 213.58008 227.73135 185.81373 103.44979 83.26472 87.70422 97.84005 99.21224 94.14621 62.04278 26.59652 -51.82543 -125.50638 -162.06980 -164.43594 -185.72397 -193.19297 -279.03143 -270.81917 -405.52773 -681.24917 -898.63868 -1297.81376 -1492.37440 -1810.48780 -2135.45433 -2513.50752 -2896.31327 -3026.93548 -3521.10926 -3754.27708 -3908.63952 -3980.21369 -3998.48194 -4000.00973 -4000.00000 -4000.00000 -4000.00000 -4000.00000 -4000.00000 -4000.00000 -4000.00000 -4000.00000 -4000.00000 -4000.00000 -4000.00000 -4000.00000 -4000.00000 -4000.00000 -4000.00000 -4000.00000 -4000.00000 -4000.00000 -4000.00000 -4000.50000
-4000.50000 -4000.00000 -4000.00000 -4000.00000 -4000.00000 -4000.00000 -4000.00000 -4000.00000 -4000.00000 -4000.00000 -4000.00000 -4000.00000 -4000.00000 -4000.00000 -4000.00000 -4000.00000 -4000.00000 -4000.00000 -4000.00000 -4000.00000 -4000.00000 -4000.00000 -4000.00000 -4000.00000 -4000.00000 -4000.00000 -4000.00000 -4000.00000 -4000.00000 -4000.00000 -4000.00000 -4000.00000 -4000.02085 -3995.20625 -3963.11583 -3835.41296 -3037.17655 -2012.65888 -976.62184 -477.50236 -246.26997 -198.20434 -190.91437 -182.35863 -162.08380 -100.21658 -6.48995 294.95955 557.67390 836.18553 906.04681 843.24931 765.74466 578.83061 442.49353 365.10522 98.09992 22.26531 5.01434 64.80238 251.32388 389.80357 704.87144 839.64545 922.35049 973.25339 1026.39440 1026.90333 898.01698 723.29212 592.27361 468.52733 436.89458 343.09153 312.38404 279.80956 221.68621 146.37428 110.77072 85.46197 79.16740 73.79464 67.49536 62.87782 58.58418 58.78093 73.23498 120.10648 210.64758 233.33123 192.07372 116.57497 88.67906 92.94586 97.96946 99.17855 93.11073 51.84772 -14.13530 -110.47306 -163.47255 -192.76273 -229.18307 -273.42125 -340.91964 -510.19446 -583.63015 -946.64635 -1393.28702 -1499.41310 -2104.83889 -2665.27977 -2763.01426 -3168.04925 -3319.63667 -3435.70873 -3726.84591 -3885.04701 -3936.91428 -3986.78326 -3999.31440 -3999.94643 -3999.98623 -4000.00000 -4000.00000 -4000.00000 -4000.00000 -4000.00000 -4000.00000 -4000.00000 -4000.00000 -4000.00000 -4000.00000 -4000.00000 -4000.00000 -4000.00000 -4000.00000 -4000.00000 -4000.00000 -4000.00000 -4000.00000 -4000.00000 -4000.50000
-4000.50000 -4000.00000 -4000.00000 -4000.00000 -4000.00000 -4000.00000 -4000.00000 -4000.00000 -4000.00000 -4000.00000 -4000.00000 -4000.00000 -4000.00000 -4000.00000 -4000.00000 -4000.00000 -4000.00000 -4000.00000 -4000.00000 -4000.00000 -4000.00000 -4000.00000 -4000.00000 -4000.00000 -4000.00000 -4000.00000 -4000.00000 -4000.00000 -4000.00000 -4000.00000 -4000.00000 -4000.00000 -3999.99562 -3998.88046 -3989.16913 -3813.29875 -3472.05944 -2362.37070 -1286.20764 -515.77549 -251.26280 -205.25756 -171.16557 -145.95094 -86.62687 -21.91719 62.23956 259.95937 530.65816 672.73012 772.32175 575.36472 463.53783 356.50241 141.92277 -3.32409 -74.47942 -101.17738 -38.48597 20.85235 175.10976 352.06398 606.83295 755.68172 873.07132 957.59930 985.24086 1031.42331 1002.39916 887.22928 765.91112 646.94784 524.83865 394.81436 326.43804 296.48885 235.86232 184.30620 114.21810 88.76208 80.24194 74.29294 67.29109 58.58462 52.08674 47.48502 62.79404 109.52152 199.64243 218.72091 172.06470 100.82691 91.45704 94.04346 98.59681 98.35734 81.18132 4.19390 -52.72381 -138.49923 -257.67954 -317.55869 -444.87856 -575.53113 -725.81770 -1043.17972 -1428.48160 -2196.79937 -2372.59757 -2871.90006 -3204.66866 -3136.95623 -3583.41457 -3453.33116 -3905.63503 -3900.37886 -3968.71845 -3978.31287 -3992.52507 -3996.03583 -4000.02867 -4000.00036 -4000.00003 -4000.00000 -4000.00000 -4000.00000 -4000.00000 -4000.00000 -4000.00000 -4000.00000 -4000.00000 -4000.00000 -4000.00000 -4000.00000 -4000.00000 -4000.00000 -4000.00000 -4000.00000 -4000.00000 -4000.00000 -4000.00000 -4000.00000 -4000.50000
-4000.50000 -4000.00000 -4000.00000 -4000.00000 -4000.00000 -4000.00000 -4000.00000 -4000.00000 -4000.00000 -4000.00000 -4000.00000 -4000.00000 -4000.00000 -4000.00000 -4000.00000 -4000.00000 -4000.00000 -4000.00000 -4000.00000 -4000.00000 -4000.00000 -4000.00000 -4000.00000 -4000.00000 -4000.00000 -4000.00000 -4000.00000 -4000.00000 -4000.00000 -4000.00000 -4000.00000 -4000.00000 -4000.00000 -4000.04984 -3988.59901 -3904.27959 -3487.50984 -2792.88713 -1695.10745 -854.31959 -342.11951 -197.49256 -153.87208 -98.78462 0.36884 105.14392 146.47159 283.79888 468.22701 588.92912 426.11511 321.86307 188.66640 -14.80097 -80.77453 -125.69182 -145.43779 -97.25847 -52.16651 46.05723 122.27567 194.41807 449.38956 649.82774 776.84071 894.42122 940.75873 982.85863 972.56269 944.15283 895.25400 777.29447 702.47803 521.28895 426.88708 314.10641 245.59120 202.75815 103.59684 85.31901 81.18148 76.59560 67.24938 51.77302 42.20409 31.86249 26.33815 72.87061 137.55823 171.19072 161.12292 96.63566 95.67543 97.57606 98.44980 91.35720 62.03429 -16.81407 -98.46718 -224.73212 -322.29117 -619.17192 -849.63139 -1152.62321 -1778.69988 -2185.76528 -2404.95961 -2722.32712 -3094.70656 -3486.38942 -3776.91132 -3810.77936 -3923.64942 -3932.20516 -3988.88322 -3981.83023 -3991.99353 -3998.64186 -3999.65025 -4000.01598 -4000.00000 -4000.00000 -4000.00000 -4000.00000 -4000.00000 -4000.00000 -4000.00000 -4000.00000 -4000.00000 -4000.00000 -4000.00000 -4000.00000 -4000.00000 -4000.00000 -4000.00000 -4000.00000 -4000.00000 -4000.00000 -4000.00000 -4000.00000 -4000.00000 -4000.00000 -4000.50000
-4000.50000 -4000.00000 -4000.00000 -4000.00000 -4000.00000 -4000.00000 -4000.00000 -4000.00000 -4000.00000 -4000.00000 -4000.00000 -4000.00000 -4000.00000 -4000.00000 -4000.00000 -4000.00000 -4000.00000 -4000.00000 -4000.00000 -4000.00000 -4000.00000 -4000.00000 -4000.00000 -4000.00000 -4000.00000 -4000.00000 -4000.00000 -4000.00000 -4000.00000 -4000.00000 -4000.00000 -4000.00000 -4000.00000 -4000.09107 -3995.72469 -3943.93784 -3732.41794 -2974.86172 -1954.52236 -1334.44104 -569.13101 -259.75006 -131.72054 -37.05345 59.93610 169.08651 223.72168 282.70899 354.96946 329.79821 221.63450 150.89333 -84.73736 -128.57864 -180.08219 -171.41542 -152.93347 -92.87925 -30.88976 44.18648 84.34791 175.00531 311.55099 455.69976 668.17599 784.76506 885.15772 919.46177 934.01239 920.81590 895.67723 839.33501 758.75168 640.89071 482.58700 319.15104 237.58821 158.70657 119.57677 94.07347 84.73146 80.02500 68.44089 44.48688 32.36392 14.15635 12.59537 33.79079 80.54142 104.39716 99.01939 89.16395 89.78348 96.51941 93.43742 66.17491 27.03882 -74.46933 -171.75640 -335.53125 -695.03984 -1205.01996 -1741.78825 -2277.56955 -2829.22269 -3034.74236 -3489.62732 -3705.09416 -3790.45283 -3890.90842 -3920.83306 -3974.24632 -3988.56139 -3992.13123 -3998.28509 -3999.98273 -4000.03550 -4000.01202 -4000.00183 -4000.00000 -4000.00000 -4000.00000 -4000.00000 -4000.00000 -4000.00000 -4000.00000 -4000.00000 -4000.00000 -4000.00000 -4000.00000 -4000.00000 -4000.00000 -4000.00000 -4000.00000 -4000.00000 -4000.00000 -4000.00000 -4000.00000 -4000.00000 -4000.00000 -4000.00000 -4000.00000 -4000.50000
-4000.50000 -4000.00000 -4000.00000 -4000.00000 -4000.00000 -4000.00000 -4000.00000 -4000.00000 -4000.00000 -4000.00000 -4000.00000 -4000.00000 -4000.00000 -4000.00000 -4000.00000 -4000.00000 -4000.00000 -4000.00000 -4000.00000 -4000.00000 -4000.00000 -4000.00000 -4000.00000 -4000.00000 -4000.00000 -4000.00000 -4000.00000 -4000.00000 -4000.00000 -4000.00000 -4000.00000 -4000.00000 -4000.00000 -4000.03599 -3999.72487 -3972.69908 -3847.77291 -3379.40462 -2665.24635 -1619.18247 -1024.07061 -419.84005 -219.78761 -104.69502 9.09606 169.93066 198.61997 219.41484 209.85181 186.31706 90.22905 -75.98467 -134.82280 -182.97032 -192.35807 -182.56120 -159.71695 -79.69865 -4.20689 35.07373 86.07628 123.95517 194.64530 306.03702 534.88780 622.46044 699.25735 808.30443 867.78531 888.42059 865.45391 839.28936 798.62561 691.18047 518.53717 331.67961 221.93114 147.54397 122.05204 96.73259 91.48099 86.50280 71.70860 53.07204 22.02548 2.08093 -1.79047 11.78657 34.29629 52.21388 62.03318 64.30606 76.91646 92.24394 85.13690 44.49663 -0.04395 -132.78044 -315.96003 -498.06580 -1227.57276 -2047.14861 -2737.94931 -2981.37102 -3499.00032 -3783.61452 -3896.03070 -3895.94021 -3952.07359 -3992.73667 -3997.92268 -3999.09125 -4000.01133 -4000.00205 -4000.00028 -3999.99983 -4000.00973 -4000.00195 -4000.00000 -4000.00000 -4000.00000 -4000.00000 -4000.00000 -4000.00000 -4000.00000 -4000.00000 -4000.00000 -4000.00000 -4000.00000 -4000.00000 -4000.00000 -4000.00000 -4000.00000 -4000.00000 -4000.00000 -4000.00000 -4000.00000 -4000.00000 -4000.00000 -4000.00000 -4000.00000 -4000.00000 -4000.50000
-4000.50000 -4000.00000 -4000.00000 -4000.00000 -4000.00000 -4000.00000 -4000.00000 -4000.00000 -4000.00000 -4000.00000 -4000.00000 -4000.00000 -4000.00000 -4000.00000 -4000.00000 -4000.00000 -4000.00000 -4000.00000 -4000.00000 -4000.00000 -4000.00000 -4000.00000 -4000.00000 -4000.00000 -4000.00000 -4000.00000 -4000.00000 -4000.00000 -4000.00000 -4000.00000 -4000.00000 -4000.00000 -4000.00000 -4000.00000 -3999.06207 -3985.99967 -3934.28550 -3695.51176 -3357.40956 -2058.93729 -1403.84816 -784.31873 -511.95276 -245.07676 -169.19727 -17.62027 53.54222 138.90141 121.11327 13.41512 -39.87431 -149.06789 -181.94369 -198.85907 -197.26665 -185.24917 -142.74693 -104.79877 -37.36916 13.98596 59.83853 95.52323 117.79730 173.79470 263.03318 491.54672 487.24475 677.02179 721.77032 776.66713 809.87907 790.96248 745.61418 642.45628 457.94070 267.10459 185.46686 140.25682 105.93642 98.68704 96.25463 92.04028 73.21046 53.99880 22.34392 3.79222 1.99199 5.47724 5.40389 5.71798 20.33950 28.89019 58.52730 75.64526 64.19797 23.36927 -65.67104 -237.46634 -556.71058 -1166.06970 -2137.17990 -2929.20370 -3648.15268 -3720.85497 -3953.09141 -3986.42630 -3997.24964 -3991.38499 -3999.23997 -3999.58038 -4000.04625 -4000.04001 -4000.01022 -4000.00000 -4000.00000 -4000.00000 -4000.00000 -4000.00000 -4000.00000 -4000.00000 -4000.00000 -4000.00000 -4000.00000 -4000.00000 -4000.00000 -4000.00000 -4000.00000 -4000.00000 -4000.00000 -4000.00000 -4000.00000 -4000.00000 -4000.00000 -4000.00000 -4000.00000 -4000.00000 -4000.00000 -4000.00000 -4000.00000 -4000.00000 -4000.00000 -4000.00000 -4000.50000
-4000.50000 -4000.00000 -4000.00000 -4000.00000 -4000.00000 -4000.00000 -4000.00000 -4000.00000 -4000.00000 -4000.00000 -4000.00000 -4000.00000 -4000.00000 -4000.00000 -4000.00000 -4000.00000 -4000.00000 -4000.00000 -4000.00000 -4000.00000 -4000.00000 -4000.00000 -4000.00000 -4000.00000 -4000.00000 -4000.00000 -4000.00000 -4000.00000 -4000.00000 -4000.00000 -4000.00000 -4000.00000 -4000.00000 -4000.00000 -3999.94578 -3994.86064 -3984.02192 -3887.48779 -3455.44140 -3172.41043 -2218.73132 -1834.06036 -1078.53087 -966.48755 -898.99066 -381.68387 -193.15698 -45.17922 6.90252 -50.42518 -114.31308 -185.86103 -197.38042 -199.57346 -196.99916 -193.55696 -161.56324 -107.38839 -75.44552 -28.23180 31.36948 64.75519 90.18198 140.81413 148.74064 203.72071 294.36227 477.61587 513.81539 574.62934 606.80922 631.78944 517.57863 492.16394 384.83208 231.10475 151.24991 110.71857 103.57528 100.05092 99.27113 94.04707 86.68126 64.71054 37.73876 19.15987 20.81085 19.52192 6.93760 -3.70901 -1.85185 15.25160 15.44823 26.69425 25.54568 -46.24381 -119.71004 -413.89554 -904.32593 -1913.03002 -2922.59439 -3320.77970 -3761.62451 -3947.27364 -3992.77210 -3994.65223 -3999.87582 -3999.94924 -4000.00528 -4000.00138 -4000.00000 -4000.00000 -4000.00000 -4000.00000 -4000.00000 -4000.00000 -4000.00000 -4000.00000 -4000.00000 -4000.00000 -4000.00000 -4000.00000 -4000.00000 -4000.00000 -4000.00000 -4000.00000 -4000.00000 -4000.00000 -4000.00000 -4000.00000 -4000.00000 -4000.00000 -4000.00000 -4000.00000 -4000.00000 -4000.00000 -4000.00000 -4000.00000 -4000.00000 -4000.00000 -4000.00000 -4000.00000 -4000.50000
