83.43035 71.33220 68.33431 70.16424 68.18661 61.59381 65.92779 54.28326 54.38672 44.53269 44.58089 53.75504 55.28432 59.49234 46.99280 40.06591 31.87961 30.40058 39.94347 41.66738 41.09353 34.49732 41.23060 38.68497 34.17214 32.82296 27.22322 37.93737 33.70063 35.79035 46.60948 27.37882 23.02331 33.42398 45.86151 41.50139 31.51209 42.63212 48.49281 51.11952 56.88503 51.03899 52.82586 52.23686 73.04229 82.08878 81.11827 86.13544 94.93232 113.69720 96.77842 98.18974 87.88148 91.33024 127.86378 141.58564 120.83531 103.60277 109.23180 111.46402 119.00829 138.81413 178.00626 186.88658 190.60538 191.58366 138.80889 150.96135 170.52201 155.22480 156.06303 135.54685 115.97201 110.40100 118.34439 148.62914 121.70684 120.54303 102.67711 86.50620 111.78886 100.09022 112.51789 110.77315 109.20588 112.12210 112.83502 131.61423 156.28082 177.91699 180.32768 173.83626 163.28116 166.38277 161.39936 169.09045 157.27813 158.60655 150.08382 149.20453 158.18046 161.70942 168.43110 174.17641 185.74479 182.35932 195.51256 201.56933 236.36963 247.64338 241.52623 253.74666 236.60442 224.93779 205.37519 226.92655 230.18796 263.40978 270.59770 245.48676 224.91315 220.30017 219.31913 214.90071 204.57224 195.54181 202.30523 204.99942 241.36153 260.65007 313.53409 309.44924 275.48116 287.09089 345.15189 397.97214 299.37591 273.01697 306.87731 279.13927 363.03372 513.64514 659.21867 682.39550 561.10228 359.48516 366.35578 512.14867 641.01080 593.38559 507.63181 440.20890 552.63575 710.22955 835.94478 674.16966 462.80106 397.16631 357.65789 306.57753 241.50136 365.22089 391.87215 259.06056 266.02834 363.57887 518.25145 553.48580 659.54609 525.27527 397.38833 457.60507 452.14133 425.57483 352.19843 383.74094 375.36367 287.02603 216.46518 198.53540 193.44367 254.34319 419.89261 484.44991 473.66372 406.92287 386.00031 317.42279 220.94554 223.03169 336.98487 336.23553 267.94830 232.97681 487.20542 554.66634 464.57557 348.82498 433.43504 626.87119 660.86331 547.87248 454.37910 288.46993 451.28400 507.16930 397.03153 244.44720 293.51053 332.19209 211.39755 322.82506 487.61790 440.90768 429.51299 477.88928 533.45287 412.91031 231.39844 205.46195 232.56439 282.74181 299.22530 253.14704 192.21418 163.69535 192.39849 220.38111 223.46502 249.32047 245.49479 187.64204 121.40521 118.80557 109.27875 104.45204 88.15797 72.25543 66.21076 68.78863 61.72428 52.15788 40.72307 45.83269 42.40072 30.47486 29.35735 34.23519 22.70945 19.68329 24.29487 21.20406 12.97120 19.99275 6.22758 0.61671 14.52676 -3.90206 4.83174 -2.53489 1.10259 -11.99611 -2.69611 -3.44788 1.45826 -8.35188 5.91020 -5.62920 6.69340 4.98746 -9.35951 -8.60838 -0.67166 -7.94401 -14.48500 -7.11122 -9.40688 -12.09443 -12.45588 -4.83967 -0.36657 -3.30304 -4.82984 -5.55712 10.66235 -1.18820 16.53989 11.20426 5.18720 22.47459 21.72709
84.86636 85.66493 72.34850 69.96619 70.09017 73.46501 59.62530 47.07999 62.19618 45.16014 39.41355 45.85885 47.96974 46.39877 34.25592 35.34981 28.90559 27.03716 34.83114 25.51804 36.72500 44.91095 26.86903 29.81442 26.39144 18.82541 15.14447 21.42830 35.49356 34.24875 36.12304 26.29751 30.22441 34.18818 34.23869 42.17489 43.50007 31.84545 36.84012 51.58291 40.31098 42.58098 44.89674 46.01441 82.54495 91.71650 91.78811 97.74297 106.27661 109.51044 112.20291 99.56255 88.30952 86.68229 107.86243 121.27948 117.34797 114.43215 110.31969 100.31879 102.42514 143.54766 192.13662 189.23899 192.27210 175.90738 150.62294 138.33575 147.98107 145.63428 120.19550 115.02675 110.18119 108.23449 117.93313 149.87068 137.19456 117.15833 97.99755 91.91437 102.59829 90.41375 97.49253 119.13367 130.60684 119.36219 123.47442 140.98214 151.42852 172.23395 167.34109 183.11634 165.42914 160.87762 146.46656 155.58906 162.82855 154.63780 137.59176 151.09274 186.33289 158.53245 151.98769 160.05823 161.90079 181.41047 192.00211 193.60427 225.73101 253.88116 287.59244 258.97876 214.27061 205.53979 242.86128 253.94010 253.26870 277.64664 287.15327 265.31520 237.05700 236.34169 256.67868 238.32171 208.41825 214.28635 228.56361 223.58151 207.45581 217.34876 269.78612 312.62287 290.48305 316.83482 410.01020 412.24209 330.12164 351.42528 380.03307 288.01863 340.34912 560.09141 715.99815 671.61185 548.04770 402.44193 500.41490 627.55969 707.43475 540.61560 655.18743 629.88196 764.15666 849.63264 732.70518 517.09937 375.00465 321.30696 287.92451 229.81785 332.68145 466.55742 423.79406 253.27091 286.57142 337.58977 514.39191 571.83932 686.62500 620.62525 516.85575 521.93226 625.69848 554.79351 455.63354 406.67142 430.30618 395.25842 322.21902 264.96450 254.93827 262.81104 394.19533 509.59437 570.02942 513.14197 439.68415 301.81365 210.00294 313.29867 425.97494 434.46742 344.75964 239.58050 398.96828 569.12139 633.88322 516.57894 463.32468 683.69391 727.37737 671.72253 474.71418 365.97307 534.20211 505.49589 395.77316 396.62607 506.33576 342.59109 236.00648 291.11791 567.57137 679.39674 673.84461 641.78521 481.86196 308.11199 311.65555 345.51706 354.54409 415.74659 376.72354 258.31315 156.56347 224.34822 253.57796 307.56151 315.54368 329.12803 277.87939 171.34676 131.34883 138.04718 149.90190 122.11323 105.32660 98.58298 94.39575 101.63030 66.58749 63.41426 57.10078 43.74852 54.79024 35.95470 40.89054 35.61553 27.87021 25.48151 25.56152 33.19761 12.95220 16.66626 13.71352 5.31518 2.57379 -1.29441 1.24877 -3.20396 1.83824 0.46746 -5.11980 -0.04839 -3.24610 5.82061 -5.74003 -2.07681 11.23593 -3.20345 -0.66017 1.92826 -5.78848 -3.96463 -13.34447 -9.69718 -6.37880 -8.03222 -5.77261 -11.47675 -7.99197 -8.70430 5.47799 -0.02729 9.60603 3.02450 10.55353 20.05601 5.76811 20.40551 23.13398
85.77694 85.50982 76.25088 73.48580 67.64805 61.99398 47.67805 48.49976 55.30341 47.10606 46.30871 34.45455 36.83559 33.52925 21.14409 31.91225 26.47748 19.34580 26.03727 20.78806 29.96631 36.26093 29.72574 34.28743 18.11675 15.71513 30.29017 23.66622 23.40647 29.83961 35.76558 20.50529 23.36332 31.31839 31.88627 28.76158 43.69774 31.28574 31.98573 40.04230 37.18358 37.39073 35.42208 56.31560 58.30030 96.09052 115.00577 129.27077 129.04890 113.77035 117.43706 95.29558 73.18334 75.96628 89.42552 108.21891 92.05521 100.87457 102.20560 111.67185 120.05647 159.26179 170.74619 178.89100 183.96152 166.60959 144.44469 127.10432 133.66335 126.64169 130.90725 123.33035 112.53182 100.38064 112.27084 142.15629 126.03635 122.25976 97.19128 86.52727 93.00246 106.24107 122.00428 128.08836 127.82332 124.58602 117.64778 121.38212 146.79929 145.36540 143.65788 168.22533 172.33394 163.11187 142.27762 137.47520 141.66925 130.60073 140.89264 192.45472 186.22879 158.81916 160.13333 150.76404 156.84905 165.05915 181.75450 191.14855 202.98069 227.60210 260.27603 270.49089 259.63458 255.44682 279.43913 305.13472 304.13734 273.94206 306.30662 315.42551 301.14102 272.66425 264.68408 244.88539 227.53534 207.71142 245.24029 255.49423 283.83433 255.32701 258.58060 322.18151 427.85741 446.51839 512.20860 487.41348 430.24517 447.47115 435.55623 350.47629 358.34199 463.82049 738.19841 755.27394 663.22945 451.88360 623.17465 784.13507 787.26668 700.94470 872.82778 903.21120 892.74220 956.79730 731.96337 549.25734 367.17772 482.00966 511.55736 354.26393 400.06304 571.11444 376.34090 277.18131 342.22964 386.66520 445.64574 481.95957 586.51538 685.05777 667.63284 597.25381 733.19002 678.14883 660.11008 523.97213 560.81904 596.02566 535.77365 424.79812 328.08934 245.31062 322.09028 404.35596 601.86941 599.12514 560.75289 392.48389 348.78549 254.66699 390.74214 489.45965 478.23628 299.22354 261.33590 386.86880 501.37175 714.54601 771.52362 814.72017 765.93921 597.85654 459.02512 534.33378 714.10924 611.79616 415.76643 388.30946 511.11544 394.84391 257.86585 397.57162 542.14119 807.47642 876.35872 724.76233 552.73121 309.71759 459.91351 498.91845 439.50994 440.37376 370.07575 261.05673 238.97955 345.18249 382.51238 434.47253 362.93795 338.97478 278.11773 237.94243 262.51499 227.58170 174.29236 130.57283 159.24192 138.31506 109.28982 117.16143 96.14259 92.65497 83.75262 72.54159 70.70298 51.07416 50.98218 45.30868 43.70892 37.35391 42.30083 25.73857 37.91308 22.91595 17.60908 15.37003 22.40619 23.44660 13.08592 12.16425 2.54370 4.30893 9.28224 -2.87489 8.70430 5.45622 9.63666 12.31502 11.93439 -5.77903 0.97287 0.99313 -3.15120 4.61072 -4.51742 -7.55051 -5.10782 -8.39153 -9.37447 2.14806 12.88146 -13.32507 -4.05963 1.84759 6.17166 9.53729 9.68078 14.96835 24.33631 33.75001 27.72091
103.44105 73.46459 67.26808 63.24071 61.74013 62.26888 64.25596 50.79850 48.09870 47.39228 35.94699 36.09291 19.11140 43.65286 40.98413 27.79852 24.25129 10.39406 25.31505 27.10536 27.64923 29.68444 29.21670 22.90640 22.83171 25.68435 24.69322 28.17603 22.55452 18.14837 17.88496 18.91073 20.51064 17.99782 25.55183 23.88607 33.32961 23.87130 24.20833 33.01630 22.89000 41.41127 31.74038 43.53102 50.51467 71.31503 124.51290 126.94637 114.80638 86.20267 97.05406 67.93650 74.97670 72.24840 80.83656 97.11478 93.13740 92.18891 106.99735 113.57402 109.86459 114.27494 131.32428 137.11821 167.96289 164.10879 159.09684 130.56805 133.98467 145.98496 152.92624 168.73334 142.31439 106.30283 109.79881 115.71390 112.72602 96.16854 89.99079 89.74144 90.09482 109.97212 119.52203 130.99433 126.19477 103.91104 116.51932 107.65314 108.86976 121.44216 156.96893 203.45126 211.52012 170.36158 160.15946 132.15430 137.03465 119.11030 158.86981 164.32674 156.42542 150.22011 141.29457 160.15537 176.30057 182.13921 197.70044 203.15165 233.36535 244.57008 279.39522 304.75923 292.23725 304.09256 303.04114 322.97115 311.64834 280.93577 307.75310 329.42662 311.42032 293.12211 253.95683 227.93054 199.38553 225.38358 247.95464 301.00870 319.71955 299.56385 270.79200 338.59925 427.57360 481.45564 512.76128 552.59629 578.52754 592.71874 637.87569 488.74646 437.57477 491.21104 676.88623 769.54770 617.88545 529.10425 592.41210 682.40913 818.70499 920.89949 1037.03937 923.65968 853.87735 877.47593 696.79425 478.17097 459.24896 600.23723 554.79927 372.37950 499.38837 516.08931 302.40439 256.16647 293.68045 407.97883 404.68336 405.36408 539.28254 659.66782 735.42508 818.75434 903.68786 885.23210 827.55861 623.55663 641.81858 812.89721 682.72895 552.76122 398.10905 210.77409 244.53010 374.01800 593.81261 676.53113 720.11109 567.53632 433.79136 277.61334 442.02801 600.58997 595.08810 457.26183 371.52981 395.66209 435.23700 659.65726 898.49391 908.53204 794.30182 532.06244 572.75030 793.04594 900.50985 668.60819 433.65129 423.25486 619.01834 393.01079 266.90918 387.26735 662.37634 859.93074 862.30844 597.48707 654.38292 395.85432 614.23497 719.46943 521.24953 429.40018 289.27317 212.73814 267.49137 358.09468 445.34741 544.87448 517.33988 419.83447 397.01071 367.51813 282.10319 240.43675 171.51573 176.06077 184.26331 127.98872 115.02250 102.97102 107.84028 118.75898 113.59393 93.23809 64.55717 61.78156 69.95974 44.70959 43.72814 46.42195 49.91436 38.18135 44.93858 23.42623 27.37894 25.07791 23.89987 16.82534 13.79917 19.92999 19.34305 1.65588 14.88283 12.51070 8.14129 9.62052 -3.85987 18.51800 1.70858 12.02736 6.80802 2.91588 -3.28190 -2.06905 -5.76194 -4.56867 2.78275 -0.58588 0.29135 1.26540 11.00028 4.25627 11.35776 2.88584 15.22297 14.85526 17.22358 20.45444 28.30776 28.07632 43.20886
99.58226 80.11605 71.34135 56.17287 64.36251 62.69696 55.81324 45.93418 46.67248 37.31504 35.36614 33.38416 29.03409 23.18235 28.60477 27.40988 17.96917 17.63127 13.21183 25.63640 28.76950 25.88769 27.94967 28.84591 20.22170 23.41468 15.99475 13.63461 18.81869 16.28970 19.36964 15.64078 13.21871 12.55866 16.29200 28.76817 7.93123 11.76531 21.86398 37.21116 27.11607 29.63204 36.04000 41.02374 64.49904 96.31050 119.37170 134.18026 92.84653 74.70638 71.80079 69.50675 64.93715 82.36158 101.15298 117.72777 132.77567 108.59262 126.96266 106.51878 120.99479 132.79084 128.00744 141.56641 166.69066 164.60128 148.87383 132.53488 136.80595 166.14377 185.90993 179.78794 135.08485 108.83276 92.08693 92.12199 92.88204 84.19068 77.03118 78.61425 111.29153 128.91215 136.99055 157.51682 136.53683 103.11225 91.16484 100.67559 114.26246 161.79874 185.87173 231.26287 216.35889 170.77107 156.41049 133.70298 125.25048 120.12334 141.01887 152.85943 146.18192 158.48406 147.86674 149.69012 185.21861 195.83321 193.70624 205.60332 217.83364 225.22719 283.75967 320.44649 347.21431 364.51658 306.67250 259.17370 281.43420 256.05789 259.94205 282.74770 290.32167 289.48761 279.29852 239.42057 212.76207 249.57300 324.17740 316.48082 356.97063 342.05783 288.92926 290.02310 322.60996 366.28284 427.96135 444.81066 530.86213 640.15225 740.76833 575.42542 571.68340 590.03708 711.29877 796.51008 745.27657 676.18067 668.70483 770.02955 929.35093 1076.97300 1139.81784 1004.61619 785.09021 561.84048 493.60524 497.76440 592.92976 623.29721 507.23598 334.30407 527.65133 501.74787 435.05202 472.00014 321.39089 282.00995 324.23807 367.88910 408.59453 537.40566 649.41923 814.57942 985.30368 941.31258 759.66043 734.77423 885.77829 979.40495 693.85613 611.14874 353.80311 240.04393 353.94923 533.33345 518.65669 754.25607 885.72407 719.99132 396.45002 297.97479 491.28592 710.23576 618.98906 480.41651 501.37156 649.46390 498.28188 564.51681 906.14705 977.95120 715.57970 726.31063 780.06909 919.57679 985.96076 741.38271 476.24522 559.26768 670.05417 345.75597 426.19551 464.41181 692.95641 937.92144 875.25751 572.05274 601.47953 690.02953 683.83356 741.74092 599.22452 347.12221 377.12915 456.66781 378.98003 363.09187 497.20900 650.64234 725.17808 551.34738 489.54973 380.39016 252.06645 242.20456 243.36505 260.83942 210.74335 174.03732 168.56300 161.33244 157.75269 150.73608 128.62849 98.07635 80.05543 103.30116 106.85457 107.97750 50.67882 52.36223 47.79154 56.74521 36.85370 32.97232 28.25636 22.73742 25.91230 30.38159 24.86169 20.55806 5.68442 12.19904 10.20334 8.22761 19.68733 22.57932 8.12365 10.61472 -0.02980 5.30525 13.00542 4.14295 0.13446 2.05880 2.47005 -5.48121 4.63027 -2.27424 -0.98872 10.09668 1.17300 25.67292 4.04049 14.12571 12.00595 23.68834 22.24483 29.74887 38.08732 45.30517 44.93420
86.97508 72.93422 74.63799 54.08283 52.62026 54.49239 51.73678 48.82903 45.88442 32.54632 31.62926 29.08993 20.02970 30.27771 23.87338 12.88019 22.20601 16.43359 10.17798 16.46899 11.55596 19.59852 30.23012 13.81949 14.79256 12.54614 8.81051 10.18905 14.99399 18.86143 15.36695 6.49648 14.00774 9.00905 13.77687 17.77767 12.68405 16.27661 30.81932 33.03040 22.60191 30.10832 23.80915 35.00281 75.32472 90.20106 126.95297 120.78906 77.66662 55.63441 53.03671 63.63751 63.09124 72.01520 78.53244 132.16120 160.42259 168.34766 139.66716 128.40696 143.36631 150.27784 162.25001 131.74089 158.94448 164.74956 150.15541 155.03098 153.48260 180.93297 227.49852 224.05244 173.63305 112.82860 88.65623 83.75173 92.24960 78.05323 77.66275 97.51899 100.78850 130.74456 176.57278 182.65390 137.91532 118.24619 80.75009 108.91128 134.73044 176.91338 186.44919 173.19845 157.84703 123.74589 132.05093 123.17105 117.85085 119.42259 142.70221 135.88678 169.22783 176.52182 184.44970 157.75018 165.63651 166.06715 186.04544 197.12833 204.79717 239.92018 274.31991 314.38586 324.50270 338.23782 308.39068 237.33243 257.67333 248.63541 259.92663 274.07795 290.94618 284.40882 283.11345 276.22174 237.42499 310.37417 341.67116 384.07908 441.82434 451.08122 398.77499 354.52437 390.00110 364.93602 407.74663 438.31896 552.84780 648.04018 816.37109 834.20034 711.75342 713.16924 737.23268 871.46485 842.13160 732.12766 684.62229 846.46710 933.38268 900.01664 1055.33799 987.12682 820.21536 637.81910 601.75104 626.50186 630.44448 578.03127 489.56410 345.85791 536.77387 623.03067 505.03928 602.12398 423.20208 330.77602 548.08613 548.31621 398.83723 431.10627 614.40522 732.81187 1073.97160 1027.04453 924.30191 969.18730 898.70873 859.68429 700.23343 582.47893 443.15747 374.66172 303.91717 515.98148 586.40922 828.29125 869.32770 653.03468 312.77876 336.66718 625.95206 839.76413 652.72319 602.23487 819.25452 694.62470 447.30141 517.79269 832.24398 955.82183 856.50633 872.06633 960.13905 979.00654 878.42783 582.31298 462.74439 720.91282 677.64558 396.35718 498.01495 691.49532 777.98744 989.76936 908.95132 561.08001 699.89420 756.89332 830.99598 638.70796 463.95718 402.06057 446.29405 676.18891 550.08711 438.73181 675.96392 843.20674 853.42696 628.11803 504.02873 398.31548 432.95630 387.45716 302.59828 263.98429 196.57238 190.65247 298.81440 285.95441 217.90152 184.44422 126.12902 120.35034 120.66734 144.35008 135.19679 115.26373 70.88207 73.25379 63.09081 40.80691 30.97939 49.48427 47.57110 39.67114 46.25659 23.86017 22.40420 16.37601 15.42853 9.06196 25.79435 19.22749 14.74343 14.44172 15.32805 5.26752 11.77316 12.71547 17.80819 0.70828 7.41760 4.55893 18.73375 7.56397 15.22798 14.92513 2.01151 17.07227 22.87613 30.79995 24.41840 28.68331 14.72294 25.67271 22.39559 31.21416 45.73127 50.27863 60.56281
82.56417 77.58592 62.10744 62.35121 48.80326 45.45542 46.27115 43.66246 35.88542 36.05595 35.05014 36.38219 30.36736 27.70751 31.95153 11.29153 9.76952 18.37992 12.84068 9.90575 26.64786 17.03423 10.45496 10.65563 -1.13895 4.11582 12.45593 18.24352 3.61183 7.23311 6.67738 10.68997 7.46076 14.51410 6.66759 12.86725 16.73241 15.31905 22.31851 18.58774 23.13208 29.61270 28.48776 37.58819 68.82063 97.99498 118.78303 94.06009 66.04851 57.20740 56.19283 61.97123 66.71165 82.78291 118.13915 175.96044 214.11134 208.99118 167.90190 146.22514 148.63853 168.15366 189.14193 162.65548 185.87980 171.30147 168.74492 153.11347 172.94774 196.26851 248.86277 202.84689 147.91639 117.03613 88.81201 76.19621 77.82110 69.09950 68.96520 78.24049 91.53856 127.41165 202.51017 214.49508 167.72131 131.18539 89.08237 100.27724 118.76042 149.50599 135.27321 147.82239 138.45446 112.99931 101.36224 114.17695 115.55931 124.76998 149.22955 167.95800 199.32553 219.11943 187.90844 170.19837 195.11323 195.03058 203.18927 225.80130 244.99825 282.01988 278.09816 273.09639 294.69469 278.12705 261.34721 229.51126 234.99096 240.13459 251.92853 258.11962 252.19785 276.83034 288.87938 275.33501 258.91258 290.69990 413.71372 448.80162 496.83127 550.86602 535.40415 482.52093 508.14787 438.01396 495.65926 516.63311 554.19053 739.60355 872.52393 900.97567 754.18214 727.70831 738.26691 860.50463 874.62992 894.12910 862.78860 869.74775 806.77081 853.72054 964.03682 972.75440 889.39378 800.26343 718.56451 691.66054 548.01123 465.65334 400.05639 369.28125 543.47913 628.71752 666.57416 706.22574 556.31954 435.84860 631.81574 689.99937 493.64292 414.71945 482.32453 641.49782 978.66688 1076.99642 1131.44062 1036.15125 900.87680 644.10843 477.51360 508.94903 691.98486 622.35348 324.56118 568.16826 826.04045 907.39997 813.41027 543.30506 450.31665 353.84420 639.98553 802.82187 793.93017 900.46992 1019.21666 743.90897 585.64809 498.58125 710.76918 895.30153 1061.30407 1170.20184 1136.46898 1060.44043 983.44677 602.28947 709.10382 862.25448 596.26497 402.04859 419.17318 541.01385 727.24555 1014.44966 890.24722 665.62728 680.51438 1026.68470 1037.77918 726.35753 650.63226 578.35203 543.16540 802.71575 661.12896 616.76576 694.53843 855.56455 847.99541 756.22476 577.94507 464.75966 450.83526 413.69908 293.16838 233.85245 220.35540 244.11514 324.04114 283.70646 191.22482 190.92239 173.79991 179.63475 182.64845 172.51572 145.25710 106.19813 118.54055 84.18045 62.24236 62.96683 56.28649 48.41540 49.16493 49.96528 34.71011 38.65155 32.12626 25.42586 31.58280 28.90742 21.90854 24.22617 19.98776 16.02161 22.80393 18.58818 10.23061 18.67682 22.39987 17.89675 16.63016 26.55997 13.30249 18.68298 16.09849 20.23908 18.10103 29.45354 19.55936 30.77588 30.18114 33.46587 38.91611 32.13267 40.14257 47.66707 50.18176 62.27558 72.88538
60.65468 71.91018 69.35508 59.12950 52.41074 45.07295 33.36654 35.56288 20.70801 40.03195 33.37528 41.29565 19.68191 19.71560 31.49453 14.98016 20.52131 8.31315 16.88573 -0.52985 6.88983 15.40762 2.93721 6.23968 12.11596 3.32344 15.59891 15.02173 -3.74757 -5.45990 9.64350 4.64727 13.48907 10.17646 8.24325 11.68492 11.66094 12.10633 10.71569 20.50396 21.00481 23.95644 28.40335 69.71511 96.98207 91.70837 97.49973 67.19036 53.16832 52.78545 50.55047 58.14194 57.75672 77.39021 126.19619 189.90032 225.78920 247.45392 205.90229 187.83850 172.74741 179.50674 234.86985 215.94253 216.52378 190.58494 219.63246 217.09744 203.19542 208.01698 212.93514 167.31628 156.19684 134.13977 102.80138 78.04386 69.29037 64.41363 57.84999 61.89221 94.47236 110.12086 164.75532 166.14839 162.75248 136.75743 93.87157 89.89606 101.19663 109.80910 111.68601 99.79566 119.12096 101.44284 103.32853 101.47202 97.67037 122.38113 123.78183 161.50368 185.37800 212.31727 220.99502 210.63779 210.35448 220.38568 273.82203 308.12168 316.79871 293.14658 279.48912 217.13261 245.90754 223.00496 244.39696 240.90387 228.85340 244.84092 269.98024 269.89827 291.81933 335.26068 317.77013 348.27953 374.94907 315.50084 371.91369 429.53982 568.69613 641.13857 589.12015 573.14861 597.38007 487.85494 495.46581 627.04278 702.02735 718.01969 781.95950 819.03515 699.91741 680.42581 755.87718 868.28101 954.46216 957.49487 934.86836 838.18323 689.68024 714.09441 889.73665 970.56982 955.22049 884.13687 820.49671 627.63865 529.22701 406.63813 354.78415 480.03563 670.73570 760.65039 786.90589 691.42692 547.59066 446.97693 647.80682 764.12488 658.00852 514.86891 556.27092 699.45831 790.13353 1089.05684 1197.55259 1057.60757 718.09282 669.41512 698.94379 707.31123 699.96917 499.28555 320.75086 498.69456 729.94801 868.87191 910.49500 776.71721 691.20505 376.42729 536.68526 805.61606 1005.62879 1043.64882 1170.93344 992.80342 830.89686 583.50028 555.97602 849.71930 1058.82552 1243.84940 1109.22728 1004.21823 932.30200 759.89657 866.06463 769.10528 434.78211 331.23083 532.77240 646.53044 829.59460 990.47730 1005.39083 858.90193 928.68890 1099.78201 1123.04248 905.10187 845.01109 786.85424 694.09128 901.40528 918.68516 920.25304 840.44663 863.75362 759.39070 763.45972 481.54627 315.04565 302.21440 323.78098 270.92125 222.12284 240.98184 348.17064 327.04572 305.50700 228.40248 171.70263 251.94684 261.96556 262.94465 207.11056 117.94549 117.73485 146.72637 139.07832 83.42665 70.37239 62.72206 67.06410 58.25931 58.66578 46.21596 37.82246 37.23579 29.53136 27.65467 34.55463 26.33242 21.56381 29.12145 30.39566 23.43512 28.07084 20.10659 22.44789 21.87334 14.29466 17.08989 15.14756 9.40944 28.76121 23.55114 25.20919 24.84626 27.39698 28.90445 35.49906 35.65076 38.06646 42.23970 47.53624 53.54316 61.18772 64.03092 69.87649 78.84637
59.90325 48.21868 49.21862 60.21764 54.61767 43.55481 37.23177 39.47691 31.19752 25.38103 21.46943 19.06709 12.26208 20.28964 14.97401 21.15085 13.67824 6.55864 6.78694 3.18036 9.54070 -3.04629 4.50061 7.27399 -0.77156 3.72293 21.82565 14.76959 3.65393 9.64114 -3.57504 4.47107 -4.80756 5.78844 4.51663 -5.68993 9.72530 24.84367 5.92560 9.95395 21.60160 27.79827 41.59439 79.20472 93.54206 100.44353 58.64982 38.52361 58.45108 50.79007 54.57052 47.39977 52.24739 63.35467 93.03913 137.11613 212.13203 273.35858 238.14425 237.06965 218.19383 223.46241 251.39229 267.44099 233.60489 250.50959 261.12968 269.72324 246.92215 181.66308 137.78509 120.04488 106.40542 98.81717 90.85929 86.01195 69.81225 58.77033 65.04950 65.12113 76.42750 94.72090 106.71194 119.82225 113.73596 133.10839 100.13730 88.25867 78.68731 90.76541 87.23238 85.88517 102.98891 91.39043 101.30338 111.34572 108.44587 110.11501 134.81837 181.48365 189.63559 213.57729 233.19826 243.49341 254.53514 299.34417 315.38978 320.00746 295.82496 248.49193 226.00318 211.15656 204.01055 192.26804 203.48880 216.85840 245.83337 263.52877 257.61141 270.77616 313.98695 342.37564 343.51995 350.69338 387.22538 359.08295 370.32058 439.02722 572.12202 710.59891 735.97079 695.99289 644.27606 598.67201 647.26913 665.02268 704.44432 661.34648 713.19936 627.77461 570.92900 664.06956 813.49134 824.56547 928.19807 974.47160 952.13489 778.34984 668.42440 712.43547 821.82025 840.99307 910.67307 893.14756 769.55544 632.91567 548.10902 503.83512 416.42421 546.48671 659.38830 750.41126 861.05978 734.14396 607.30757 490.65502 759.01751 865.14992 889.01306 528.83882 524.27630 576.14272 686.70407 861.27177 1155.45831 1121.93802 888.89098 851.04585 965.84807 953.05593 721.04674 666.95413 438.74611 453.76423 633.73592 892.63258 1002.23443 979.66059 857.88419 485.81017 458.53793 631.35132 914.18997 1181.09150 1373.30650 1158.74382 944.25771 634.69121 738.89812 852.72543 1099.93803 1283.38650 1153.62018 988.04473 650.01270 719.12766 927.94146 775.79539 494.53190 667.06635 723.27392 724.32471 922.46363 1144.99895 1200.01250 924.99529 1060.21901 1166.20018 1230.83777 1223.37997 1185.21744 1089.48749 899.43590 1085.79787 1031.84875 1130.14792 978.50920 870.19885 584.17679 485.92202 392.26710 354.64483 427.64529 287.82291 269.59353 323.26923 437.95519 398.29247 299.87101 269.63282 210.92029 196.65462 284.99406 297.44775 248.95252 148.90442 124.36449 156.73767 186.72085 160.50254 123.67495 112.57131 142.10175 92.66419 71.25162 71.47058 66.71749 48.94299 46.29150 35.41582 31.18749 32.67614 21.05158 26.78899 32.90743 29.08034 36.83638 37.27058 18.92483 34.14532 29.04655 17.53530 30.45874 19.85984 22.09237 28.44902 27.51005 38.52653 36.16522 38.76336 35.66606 47.61883 39.47210 54.37225 52.83851 53.30423 59.74133 53.29745 71.71299 80.72853 85.79072
59.43361 52.37534 48.11666 48.77446 33.44145 52.25100 41.30808 50.66984 21.90235 14.94311 7.49519 30.13810 22.16297 15.62386 24.05428 17.21101 14.49241 16.55702 4.51124 6.73725 10.22883 -3.81735 3.63165 1.97117 -0.97516 -1.74249 10.35630 11.18263 5.68707 13.49977 -4.49211 9.54044 -8.04356 -2.50286 0.10210 4.51870 11.93915 5.08467 10.71611 7.49957 30.27071 56.96501 66.94418 100.43898 131.10524 84.60355 50.61942 50.24515 41.52670 45.56328 41.74273 60.99753 49.57244 64.18747 138.76325 179.62923 237.42645 274.91289 279.28398 266.23723 254.33917 246.97704 243.16278 245.82050 235.27748 282.20946 274.46362 263.74713 260.66805 187.92445 143.53131 105.87127 109.14964 86.07745 82.18286 70.97797 54.39262 62.26208 52.92131 63.61117 51.65163 61.15206 69.53553 77.15547 83.00012 98.62649 101.23860 91.89981 74.15064 82.66991 75.93843 81.36916 76.34054 99.39521 111.71686 142.66713 128.29973 115.42508 154.84673 200.49107 219.98384 222.69798 222.12208 231.48845 254.87563 315.51324 308.04259 242.28851 223.54554 216.18503 210.43033 190.09350 194.54618 212.98174 207.34990 245.51072 274.12712 305.64310 309.99802 293.45587 331.03423 405.88234 426.54153 402.29150 444.46342 439.77360 470.28866 511.73081 565.28419 692.61114 755.58775 759.90709 669.69214 661.58106 671.71252 697.37276 634.25816 493.64430 567.47819 529.41215 551.98585 645.42586 785.67583 756.33613 829.50557 872.61100 878.29052 727.65146 641.57687 606.86757 672.71770 750.02776 867.18224 924.59248 826.00027 712.63148 640.80721 578.43765 415.69113 534.65895 609.08610 741.89431 874.95053 883.74920 750.75015 546.47722 841.93187 987.48720 1003.17733 633.88905 510.62315 771.53316 953.62969 1090.30097 1231.78967 1207.16197 995.53675 930.27932 1110.13871 1113.94426 882.31285 646.91641 453.36422 545.75389 785.70051 934.47978 1098.74184 1019.51930 800.34354 475.46622 511.47308 574.84004 831.38970 1058.95125 1154.73234 1210.90998 901.22659 773.64148 897.37591 1132.05358 1367.75744 1332.07928 1126.61507 999.94762 736.05190 897.67273 863.65007 782.17844 646.90050 540.07316 532.26174 599.82733 807.97445 1155.21416 1231.79059 1183.21157 1139.20663 1410.74991 1356.69603 1207.98710 1167.35629 1307.73622 1219.23018 1188.99869 1175.43164 1078.42394 857.57036 750.37311 551.20401 423.87401 383.96919 511.04551 583.27956 566.70565 547.68421 494.73166 571.76983 454.22110 250.41207 249.99004 328.15714 258.82717 292.72011 338.70436 282.74240 164.98540 126.18141 169.00100 245.95439 193.69808 162.21756 142.21612 143.90859 121.59965 91.20212 88.86305 77.04259 58.53037 59.72419 54.51528 41.21703 37.46807 34.22880 32.91465 38.75164 40.09377 26.88428 28.16032 42.38461 31.85764 27.32618 27.34609 28.21734 19.24202 29.95486 23.11080 32.88326 36.38615 37.83985 39.99377 48.81646 44.91593 49.41874 56.57049 75.87034 64.13203 64.29944 79.57216 86.30938 88.22703 95.02241
53.82236 45.41226 40.05107 37.66071 39.86564 34.14398 24.12875 36.45006 28.66956 30.37339 25.64150 14.43845 10.42323 13.62210 15.85472 17.08940 12.40944 5.23383 -0.79212 2.58508 -9.93816 6.23602 7.07720 -1.46766 -4.11004 -9.93891 -2.39422 2.16371 -15.54752 -9.78410 -13.28602 -7.12233 2.50729 0.74121 -0.51304 1.30680 -0.96246 -0.62786 21.64734 39.65844 58.14244 80.77011 124.12512 154.38694 152.96669 98.08331 48.12293 45.31140 35.25932 30.84886 33.21789 44.51423 37.17342 72.85397 114.96115 139.88969 206.40737 220.39542 281.68900 236.05126 226.37615 218.59783 190.62906 167.13555 194.06248 250.25000 241.85513 215.24059 215.86375 211.66833 177.49533 141.09619 118.83269 98.04669 91.55569 90.09034 53.58819 51.89491 48.77150 53.46457 51.43702 46.05213 67.14490 62.10599 72.89530 79.64402 99.75126 82.11770 69.46044 93.40387 88.47102 94.17226 106.97674 112.99932 129.70229 172.14910 183.19829 147.62908 180.06951 209.71357 203.84838 194.08712 213.22529 190.85675 211.77552 233.54424 244.53903 215.31863 203.69863 193.75799 173.21194 197.44201 201.11095 236.30899 224.55826 237.38104 264.58582 325.52887 355.45602 378.84046 387.58485 484.18113 466.79437 456.79997 545.95460 574.43447 574.99605 649.96054 651.24447 625.12850 628.55011 629.86786 632.26610 621.49489 611.75575 652.89767 537.36996 464.52028 540.69012 578.50264 615.38078 672.78962 747.72545 680.22720 776.77373 804.62736 737.04775 692.33076 566.26284 606.18034 644.92035 732.22321 854.25881 887.88354 787.89476 721.99017 748.18433 725.15326 508.96410 450.35986 542.95598 648.44893 777.87447 968.95264 778.55958 628.99952 811.84292 1013.76030 940.86424 813.36405 546.45027 727.80659 1021.06269 1042.45683 1155.44902 1248.46465 1207.93971 1188.45916 1113.41130 1112.04975 912.94423 697.77159 433.19014 572.69905 881.45368 1040.60176 1084.27535 851.52157 620.23296 493.04157 662.92908 783.67649 800.73965 857.99083 1151.43641 1217.46051 1095.88121 789.21267 831.38044 1054.12949 1400.90230 1354.95606 1142.82444 1183.74816 948.35129 1142.71627 1082.89457 749.60192 599.07537 501.02958 733.92260 912.64940 724.67403 1125.18084 1357.38036 1439.41924 1354.20171 1430.35058 1378.04814 1208.86415 853.70570 888.35130 1102.70230 1095.13590 975.51792 1014.82167 715.23147 538.40981 526.20055 437.79676 530.00873 752.24799 766.24462 679.98910 430.63146 386.09190 451.32441 403.92828 266.98762 339.70381 370.74832 418.77622 340.65215 355.90836 256.85218 172.61342 243.57079 238.81121 269.99226 251.93923 178.45926 144.24044 133.97701 97.70888 117.86305 113.17305 112.66020 74.07934 71.09945 68.97278 46.27280 41.09833 45.08396 53.75821 46.53130 48.71454 36.90941 42.87840 43.91503 32.06983 31.57166 41.10312 25.58436 34.56639 37.71772 30.98906 38.34911 43.04418 46.66882 50.42409 50.40360 53.92196 71.53387 64.40463 86.71093 91.83232 93.09987 79.55510 85.24056 105.08495 93.35108
60.25208 59.39018 40.59578 36.89603 24.59948 23.27821 32.41050 27.47427 18.11065 19.92814 11.10189 20.51659 20.83493 2.67121 4.43712 1.06283 5.74250 4.03467 -6.58497 -7.41021 -2.17513 -3.38132 -6.73946 -7.10147 -3.68259 -2.71285 -9.64638 -11.00130 -16.37695 3.11288 -7.39310 -11.81148 -17.88534 -8.93821 -13.32401 1.48405 -2.49076 1.72100 8.28700 69.67849 106.75812 149.37731 164.09928 169.29143 149.86240 44.99745 35.84610 40.37520 33.45323 41.43844 38.55939 34.49781 42.26299 66.60160 80.68425 100.51300 150.64318 210.66548 268.95430 215.36973 166.22379 187.31767 156.21400 127.18225 176.40149 197.94432 171.00569 153.87110 181.50730 184.44167 176.34337 156.49224 124.35486 102.60104 99.87307 91.08615 64.37857 54.76206 47.75541 47.97104 58.32816 59.69838 53.65337 62.35579 69.59464 69.66284 72.76177 66.46528 72.25402 91.23050 117.60423 111.13890 128.60073 136.29314 151.46125 170.88125 210.10312 215.71484 229.03481 196.58971 171.32610 190.59241 181.04724 158.02993 174.53544 190.36495 172.06303 157.87442 169.55845 168.24608 183.16661 190.41461 227.93891 263.09571 255.88736 267.94431 324.63798 314.80719 406.86109 484.99206 515.40511 511.22335 527.68204 482.81812 556.60381 610.52967 601.67217 637.03087 611.20461 534.34972 465.92309 483.03846 522.79472 499.44210 509.70191 560.16872 452.25998 437.09116 569.99818 584.02360 558.51315 606.56767 649.01415 649.38262 633.57692 677.17750 569.40469 569.25850 533.88122 623.25933 626.66794 751.00666 871.26116 852.06230 686.51565 622.79926 613.84678 562.24060 477.19126 559.01580 706.51899 863.89279 865.95480 1064.97082 981.89244 880.72206 779.64888 982.87532 942.27418 742.49296 549.74890 645.89606 750.85469 891.84559 1144.16037 1307.04273 1341.61699 1202.55485 979.14491 906.69967 769.23793 538.66187 429.61069 673.94552 966.66727 1032.42150 1002.81395 716.02233 535.54799 631.38791 591.17365 866.31164 1117.65957 1120.40835 1098.48094 1341.25212 1186.93343 869.73084 860.04514 1086.90913 1417.28085 1550.51625 1437.26552 1293.00437 1037.71102 1212.33033 1327.63384 959.71153 766.86063 536.51541 817.06121 1076.82089 911.93794 994.16365 1226.93084 1611.70738 1628.42951 1299.63060 1117.39554 1029.80051 890.95982 763.55569 941.81368 775.59709 796.68184 793.63887 696.94013 540.56865 737.11285 579.93093 800.58983 972.90608 750.16615 645.22421 421.57689 445.52297 354.07193 323.58908 411.25045 451.30945 442.45291 422.21122 327.41721 318.29054 198.68443 188.98356 282.21535 335.71253 310.74331 247.61702 162.81608 132.62788 134.93075 138.00664 151.17227 156.09619 118.93663 100.47549 95.09065 66.11848 64.74775 48.08558 55.44015 57.05229 60.25067 49.51294 52.09496 49.60646 45.54395 50.46056 49.37438 48.06021 34.87255 41.46085 34.43256 29.41493 44.21571 38.42337 46.19732 52.49402 55.81751 63.80280 67.41027 76.38794 87.57947 114.16851 103.65919 85.01294 108.28168 106.79928 128.43312
50.19670 34.40656 38.09703 43.87958 20.15558 21.06289 23.51199 24.62251 20.43206 21.81087 12.99958 16.05295 7.56814 -4.67562 -1.06307 4.70030 2.92191 -5.74789 -10.09424 -15.68762 -5.99556 -11.07012 1.25689 -10.32999 -15.13679 -15.43860 -13.47765 -18.44707 -22.06051 -16.88927 -14.99630 -4.70782 -14.35118 -8.47655 -2.63621 -16.52135 0.33048 -3.54716 15.44548 56.07596 112.62690 169.14920 157.42791 93.21560 72.83703 62.78700 34.87923 33.34799 37.79594 33.34275 49.61835 48.15742 62.64824 91.87836 106.33781 128.93998 180.20487 243.34846 249.05024 188.86565 137.57553 175.27593 119.41749 110.78643 161.64921 188.65879 165.88662 135.33043 113.80684 135.05965 141.03242 108.88443 90.43354 66.49913 85.35815 83.75815 63.42083 45.02052 54.52305 29.55073 51.10741 39.62514 54.06267 57.78692 76.13156 65.24370 62.60373 68.95623 89.76818 111.99022 125.44753 128.30956 118.48070 123.72868 122.67450 148.53624 213.76202 268.44034 245.59712 191.58385 145.48089 166.26425 149.37748 169.79177 169.69556 165.42757 163.72648 161.33723 176.51949 191.56898 198.35200 222.44744 242.86425 302.19436 307.06740 286.76711 344.20466 400.88253 448.81911 521.25223 526.72522 457.90462 474.49994 420.57118 474.67872 476.62285 479.61768 539.64157 541.62553 522.66985 454.47807 461.04905 488.29102 447.63621 464.84452 409.21575 432.77176 481.98924 493.81210 489.78279 480.23926 517.87771 545.52060 606.53669 648.87560 605.70090 502.07190 512.94312 573.44735 582.80669 621.14722 768.34522 866.11039 892.88853 800.98455 704.34482 670.51059 559.11245 460.78075 552.09368 659.52151 842.91859 919.96684 1122.36820 1177.54640 1179.62045 1162.83711 1171.12320 1017.77388 886.98454 645.79097 560.97799 722.66558 746.82376 917.07635 1294.63764 1393.73265 1290.77919 1143.77884 991.77604 692.03687 572.18648 565.93015 584.05438 814.23250 932.00493 959.92173 842.35888 689.55701 939.03960 677.96201 783.62875 993.16058 1348.21012 1511.36131 1496.48327 1210.99328 879.87684 940.26875 1238.97267 1460.06636 1711.32006 1497.50986 1333.57855 1217.06865 1460.68938 1262.09545 987.30848 708.50686 550.30104 848.80343 1075.86232 1143.14482 1094.54608 1348.80130 1656.87105 1647.47683 1318.47311 1118.27714 1137.42595 1113.98306 929.06334 738.17419 694.56691 615.29856 609.96605 526.27121 614.81545 809.99169 791.39231 889.50719 916.98515 720.01634 512.34933 558.38873 674.50590 581.81233 572.13856 551.57504 464.24615 315.23864 345.12576 295.71022 240.17676 245.77757 273.49893 323.20472 363.73380 324.82430 227.32839 195.03935 179.34673 205.37414 199.74286 186.07874 182.96077 127.39735 124.99451 99.02704 89.14922 65.81054 82.85742 68.32923 67.69465 67.82058 62.34771 66.46765 62.94572 63.59806 60.34818 63.49704 51.43556 35.77690 50.97724 39.45485 39.19888 59.75408 70.14843 79.58570 88.84819 81.22443 74.80288 84.97750 78.47922 104.02366 143.15556 139.36392 100.36497 129.38074 172.02173 202.62891
53.12262 49.37857 35.82479 28.44493 17.47807 27.35875 17.75423 21.11921 13.83674 8.07737 9.74160 3.57896 5.39317 6.19178 -4.34602 -4.51392 -7.84564 1.54356 6.11455 -11.67667 -7.75925 -9.28180 -12.87964 -6.92754 -19.02468 -15.11360 -23.72932 -27.13689 -15.43742 -17.02595 -14.98934 -12.67985 -9.00513 -0.94300 -0.47084 -11.61904 2.35782 0.78817 13.02525 49.79612 104.48123 157.54138 123.03746 66.14179 54.45461 30.88804 31.19670 31.79514 24.55612 39.57980 40.20960 47.67304 77.81451 98.06367 172.47324 204.12264 215.01051 248.99288 244.14855 169.84761 131.15540 112.63896 92.03509 97.72272 116.97260 162.14265 169.48154 144.17887 87.65165 106.66587 81.75234 69.47910 56.14581 47.60862 94.28719 77.46014 51.66241 42.86390 43.72041 43.14567 40.81435 60.48526 65.27260 76.77902 76.59135 65.84767 54.50619 62.21607 90.76197 112.90050 116.66004 89.24350 71.91382 85.50499 111.19308 143.72983 216.59801 248.26558 231.36496 160.61296 150.91166 130.26244 139.29795 149.63919 139.31003 164.57794 165.26626 172.57699 171.44273 195.12747 232.82137 256.44039 286.41143 347.57580 359.42939 355.99657 394.85268 431.11158 445.07820 426.56209 438.01352 401.57042 404.73582 381.86312 377.78246 422.98518 497.82282 558.92927 551.23252 465.32443 393.93660 431.88485 466.98737 403.20802 386.74852 371.49383 380.00699 412.77509 449.95827 503.69107 545.86216 543.81512 583.84488 580.42305 613.65336 536.08916 476.52117 546.07638 643.72637 633.63043 591.81650 652.68252 760.96261 896.35324 871.40946 811.50417 664.88403 584.52534 585.57242 495.97021 580.55658 715.75775 778.89053 998.38434 1199.02348 1317.28159 1356.00651 1272.16990 1236.28577 1078.10688 664.03228 735.13545 934.99358 745.93928 926.24960 1123.84347 1333.57088 1224.07042 1003.34302 788.19621 708.02868 770.58483 606.03036 492.36356 642.37529 944.30749 1119.21062 974.69829 816.74094 1150.34661 1125.80411 748.62147 792.82104 1206.59448 1524.46521 1455.34693 1151.33183 925.07562 969.34061 1341.99888 1619.94133 1797.73273 1577.22467 1431.92129 1399.91741 1470.23123 1310.57562 916.68727 738.16874 558.43218 698.10707 910.66281 1064.41226 1265.32401 1525.48994 1643.12304 1765.59395 1262.28870 1334.62420 1500.96889 1289.47479 964.43348 734.32668 1007.41587 825.29557 1020.49316 900.59943 880.81704 1059.52541 936.38381 860.39927 766.81212 536.35293 567.38050 607.98607 818.42165 823.00046 714.21493 584.53576 406.27607 358.68612 396.95882 266.34252 367.89425 353.43660 339.68509 372.27627 357.91063 306.30143 217.59823 175.88759 190.65136 271.35019 282.34094 227.28077 171.41567 120.93140 120.05395 128.95503 101.12586 107.23859 113.45962 101.03669 76.74568 78.57869 71.50188 71.92438 63.11543 61.05736 70.91831 52.37462 64.30954 71.06782 63.95565 59.66751 53.01837 64.46099 99.55270 140.29723 140.72863 104.77498 84.69758 100.97005 103.05161 104.33630 128.21916 154.35118 115.57024 131.33782 211.92323 273.51166
44.98768 40.03063 43.87464 26.80726 27.57225 17.19659 11.69201 12.48738 8.21702 1.64113 -5.43359 4.11339 12.62203 -0.41043 -0.55498 -5.35983 -12.08736 -5.24065 -16.53028 -16.67001 -20.92394 -11.90578 -17.83637 -23.15133 -24.78014 -21.32129 -31.81743 -25.77976 -22.06188 -17.34809 -13.00467 -23.26564 -8.19688 -21.96183 -6.25188 -6.43548 -2.14441 0.11042 14.54487 38.74493 100.88733 139.83299 98.31785 50.49666 19.93988 18.90638 27.76514 18.42778 40.32900 60.43517 55.43468 62.97893 75.73180 137.43268 197.75815 240.92873 245.33369 195.16352 223.13528 192.11771 135.57549 110.61110 103.61449 86.76904 102.15129 156.89583 176.33741 152.36301 113.74466 63.70321 56.80901 53.76915 38.34685 33.01919 59.31816 44.54081 38.07152 38.71140 39.81743 42.99043 45.74308 56.11861 71.20409 75.58693 66.20442 56.62694 57.78511 64.67128 76.20724 76.93369 84.58404 58.96652 69.11819 64.62739 102.67128 131.26733 172.76121 186.67022 167.24335 146.64232 132.19408 131.24809 143.94651 143.54632 146.18473 164.37144 176.70009 186.25098 218.59655 206.66817 240.90630 291.56756 304.14138 363.65673 386.17630 369.93129 371.09965 412.55694 413.91542 350.65095 382.13539 339.65207 335.07513 341.91258 377.75418 420.12526 499.07946 531.56759 576.90302 512.70829 421.83327 440.53780 399.21270 375.33533 367.51149 418.77067 429.87761 445.01893 532.94757 561.94187 585.62053 581.49641 546.48056 559.01692 466.36579 447.96656 478.12072 483.45282 580.98416 694.85621 725.82360 761.76576 774.71509 853.27326 956.94757 862.33138 755.51516 845.17585 736.64583 626.71594 749.65437 740.30817 653.71289 722.71700 1052.83205 1281.02658 1332.88400 1353.19558 1278.26009 984.36683 705.45662 823.13682 1054.41937 852.91400 845.27767 1170.49503 1285.37039 1333.96031 1180.26167 1099.67051 1087.40275 859.13451 725.88812 595.89259 883.33480 1226.61753 1225.60603 981.42748 984.82773 1209.30483 1153.27422 754.76887 830.88728 1181.80077 1474.00665 1593.48646 1292.75798 1026.55154 993.51133 1180.32235 1544.72851 1858.76875 1936.05002 1850.15045 1705.23710 1500.38067 1428.55720 1130.36463 928.69629 709.66660 934.23223 895.22925 1072.05037 1235.52391 1672.20159 1905.99251 1846.90663 1532.63777 1695.75977 1508.68646 1192.02080 974.98662 880.47503 1151.26839 1127.46123 1325.61845 1203.49391 1126.87429 1162.18552 960.11290 683.58058 785.20511 774.52956 854.24635 969.94248 910.66944 805.44838 601.05727 566.35721 508.55897 581.80673 464.79956 282.79069 413.54841 513.74901 450.68022 363.51291 320.65425 279.39673 243.33685 218.50182 224.13228 287.17042 316.00966 243.17988 213.19585 146.93852 160.62945 132.01030 91.57817 128.29160 153.98556 121.47539 99.74306 85.16885 89.49815 91.22349 78.88462 78.27972 74.74552 78.27196 79.21442 88.59096 89.30682 68.98441 112.37371 81.33835 105.68826 163.74357 171.78368 134.98736 111.22953 116.05880 111.20881 112.18383 124.96780 146.24060 139.97167 124.44299 170.67815 290.30878
44.06209 33.23899 30.57805 34.45351 21.31464 12.80852 9.79236 10.24465 4.19690 6.18285 4.87346 2.58295 -11.35783 3.41489 -5.80189 -15.81860 -16.99587 -18.27855 -19.28379 -18.12728 -11.39454 -6.15719 -18.79811 -26.27090 -33.28566 -22.15632 -36.90614 -33.88105 -32.44905 -18.96022 -12.50551 -23.99764 -20.39046 -14.90929 -0.60527 -4.63986 12.22074 24.54399 32.57200 53.07469 56.36402 119.19074 77.35078 64.67254 29.71076 19.21625 26.73740 27.17755 47.77001 54.69849 82.92026 111.49212 115.12942 156.32352 207.63743 239.99793 202.12147 146.33605 162.42285 189.90284 159.48409 122.62203 75.04896 69.83977 85.03840 119.05558 157.20955 143.21276 104.37609 60.46487 36.36719 30.04475 23.99932 32.53442 28.14801 23.22810 21.47282 34.34311 40.64806 34.48692 36.32469 48.51667 60.22851 77.04097 45.91079 46.72578 39.73388 51.65881 60.54024 70.00788 64.09173 59.61001 51.47611 64.09821 85.23309 105.47572 91.50416 123.36926 133.01588 140.17690 113.00015 117.82489 123.78679 132.01410 142.25310 147.35194 177.32773 209.94291 244.27622 229.62742 229.42598 272.51944 291.15180 291.38691 334.64003 355.20943 303.73959 335.56966 330.31982 297.10024 333.23203 306.91348 329.98731 371.95009 403.90417 430.44887 408.60964 450.29296 475.59234 446.94756 362.37393 414.80302 363.20660 342.04910 401.35686 455.67638 477.13163 503.61380 565.62862 564.45737 582.43546 573.52642 469.02673 448.15663 495.21467 528.23880 579.88981 577.90183 559.98038 605.76615 723.24165 811.31178 919.84270 951.49797 980.69069 903.74057 907.98746 859.99423 680.74037 731.96148 901.03406 981.04571 978.06479 786.58640 847.00561 960.72943 1181.73572 1281.47646 1123.71768 924.57352 725.07316 785.26214 1107.54878 994.60108 886.47165 1060.98934 1178.16288 1337.38655 1356.75024 1217.32619 1175.66925 732.07644 727.02497 590.12547 968.79956 1335.55880 1434.93416 1241.58042 1168.26205 1235.49312 1154.22564 816.78255 888.32174 1155.00415 1405.54376 1554.33314 1492.10224 1448.91804 1084.93343 1528.56633 1713.43601 1903.03580 2023.79046 1860.65723 1700.83067 1342.53450 1077.76178 854.40695 894.59961 642.65904 954.25586 1158.39782 1185.95746 1389.30506 1709.71131 1958.41065 1922.67414 1695.95974 1482.84493 1268.98059 1070.18406 820.57417 981.29678 1230.65478 1416.75754 1462.20224 1301.51938 1169.40207 976.93979 846.41846 657.87021 980.18668 1126.07891 1152.69319 1054.27826 890.28070 734.69455 716.29343 794.24747 667.19859 449.74873 325.76776 422.85975 581.98631 539.65568 389.30092 317.93918 344.55746 319.06103 215.73949 268.62427 343.85877 389.28055 329.78781 271.24488 215.31414 178.04970 177.38039 139.29589 154.09568 186.86600 171.24441 128.26371 129.61895 110.65049 127.94960 116.57590 120.30781 123.77400 101.13808 86.77230 104.63719 111.05706 135.07970 102.95933 154.81689 148.66587 165.16945 192.02760 205.97199 177.04564 122.05417 103.39044 133.67947 119.20144 138.61831 144.08526 154.84395 128.90892 188.15784 379.81176
41.03152 36.01257 44.66907 21.50178 11.76530 15.03804 12.05399 4.46153 1.78271 -2.58553 -6.40619 -4.18581 4.22867 -14.76681 -18.25898 -24.20206 -12.94404 -9.65317 -22.31255 -22.35752 -23.12926 -19.43650 -16.08798 -24.48327 -29.75369 -27.67520 -36.07029 -32.19338 -42.61439 -36.27376 -21.30269 -15.52796 -24.80357 -19.46295 -0.61047 7.15350 41.82116 48.72962 50.07728 42.69790 40.90951 22.65450 47.85516 49.81376 17.59335 11.57058 22.58562 25.42975 56.35449 93.26918 99.26728 139.63791 167.18588 204.92139 216.84956 199.77701 134.46001 103.53046 107.70938 171.80194 182.53185 123.99688 121.24753 82.83473 77.91347 84.46706 118.66913 127.85117 73.99612 63.94244 33.91717 16.80201 21.61510 13.06103 21.05627 28.67854 20.46547 24.69003 24.42009 32.58427 41.32351 37.08502 36.23277 41.56732 29.71924 43.79941 44.93738 39.34881 41.42781 47.93907 59.86919 65.89057 95.78155 83.08965 73.27058 73.90608 89.21501 122.50980 126.07523 110.20264 122.95215 124.10450 140.29316 157.22589 160.12718 168.58730 188.26201 210.16719 267.14404 269.84768 240.66416 248.83597 264.15997 268.59419 291.53961 309.03819 274.08905 273.20607 250.10253 276.00821 282.78058 309.70319 384.90559 403.71259 415.92369 378.06007 365.12250 409.54560 447.95028 380.98974 348.45382 396.02997 333.93186 363.00494 408.93702 460.28816 456.61068 482.25608 518.28754 530.41698 543.68738 559.40224 476.33590 433.41679 529.72894 559.54510 559.31874 608.51968 576.16408 543.55864 656.69458 807.67052 904.76426 960.60359 959.83907 1003.60731 1057.66746 943.65104 907.20289 805.78510 945.56522 1130.72646 1240.62676 996.43958 862.94445 965.49018 1243.51622 1387.37829 1225.69099 1063.31223 834.83572 841.94008 1177.07013 1240.80511 1309.11086 1044.15279 1407.10517 1635.45071 1513.98744 1413.96216 1015.94133 878.91026 860.72524 593.95621 815.04634 1380.44843 1433.84483 1536.47186 1480.44686 1387.56812 1114.11211 1031.25892 832.94346 920.55640 1247.21599 1621.29311 1602.06681 1542.55216 1278.43096 1425.74843 1616.82519 1897.66263 1530.40757 1507.27703 1609.23977 1348.16132 1037.75401 834.68779 748.02389 815.42328 765.97418 1056.44715 1144.65947 1300.60013 1371.37609 1678.48002 1690.08638 1539.22623 1310.40679 1093.04736 853.43758 904.05254 1222.98543 1421.66644 1584.23375 1441.30972 1345.69056 1108.88450 951.89352 972.15640 993.48161 982.11143 1398.56669 1483.23025 1199.81046 941.79007 906.50083 954.37437 875.22430 737.01148 477.07184 361.19214 559.19393 728.94627 587.12671 403.65883 349.95850 408.82297 307.91293 299.07370 404.73108 451.17918 501.91858 323.36666 260.07153 228.42356 225.47815 172.20118 164.95737 212.13181 261.88034 193.15836 153.95481 129.73285 103.36980 123.07078 163.95240 168.71268 133.26496 116.29981 95.13397 110.48533 129.46718 168.81848 151.14516 184.80241 220.78640 219.56746 220.56649 217.53331 146.83977 132.25888 160.34672 183.15521 146.90595 138.23089 153.24319 206.71588 153.32327 226.69841 242.90954
37.91148 17.70441 35.85039 20.82813 19.85815 18.50105 13.95077 7.24387 -2.81888 2.22774 -5.72923 -12.29986 -5.56137 -9.51503 -14.46784 -12.68915 -27.25897 -19.53772 -16.14195 -28.23357 -21.78039 -16.51058 -27.50786 -41.21498 -26.89294 -33.00328 -41.05699 -40.19051 -31.80165 -39.81474 -31.04620 -27.55557 -29.43505 -24.34251 -12.07649 11.26082 56.09135 67.90149 55.22035 33.87304 21.20248 13.45733 13.36877 6.76079 8.35135 -0.16768 5.13774 5.67056 48.89003 86.75957 100.65157 114.46580 188.84784 191.00594 151.39782 120.45306 114.81354 77.14522 112.34299 137.66025 173.19347 158.01425 114.32150 77.33984 70.41247 73.59663 101.17210 126.63543 88.73855 61.21197 46.93413 16.77786 15.75551 4.97582 6.91451 15.22152 16.69415 11.44436 17.95970 25.17643 30.54442 33.48298 19.42860 26.41603 24.75335 39.93802 38.43550 37.25115 40.71267 37.25517 55.79849 83.01258 106.42692 96.60848 104.03693 89.63395 88.91585 106.36740 112.02844 119.79547 133.15964 143.07503 131.61252 154.01803 161.84458 178.12813 189.05262 208.60589 253.06838 268.94177 251.56270 238.31661 240.41856 242.86855 269.42003 261.14743 266.91994 241.20412 246.66346 243.69409 274.67109 307.11221 348.07382 395.29747 407.18971 382.68114 333.25405 363.41820 378.63881 353.49020 357.59407 339.42851 346.66820 382.46440 416.10234 421.54889 384.20391 410.02486 439.11204 410.72216 496.94135 542.13275 431.78472 405.32573 498.07783 479.67961 543.01543 627.61507 675.39533 554.83122 571.39409 683.74894 791.15718 800.11666 845.85436 1005.73982 1138.78131 1138.41080 1091.17291 1123.09523 1215.23007 1244.56747 1487.47228 1278.49279 1000.10074 968.92410 1170.24316 1385.47469 1393.21857 1210.85052 946.56556 867.84606 1134.89756 1371.12969 1249.74416 1113.87392 1570.39248 1831.70290 1720.18865 1408.31127 1182.75693 953.46951 708.27679 584.32083 938.21676 1224.55548 1260.89574 1598.79999 1711.17703 1487.48919 1138.95759 1000.88794 886.98550 1069.30392 1303.45980 1511.61117 1754.91251 1720.48925 1659.09312 1519.42194 1724.35831 1798.01513 1533.88603 1238.97714 1347.20265 1224.72385 1069.62184 869.97437 945.56110 1219.94283 1026.60164 776.24947 862.75774 1036.42131 1242.86720 1394.95597 1666.20203 1474.69978 1186.90858 1082.38148 1128.38925 973.27420 1197.28641 1522.67634 1779.87338 1567.60948 1325.86410 1266.94676 1366.85104 1211.21996 1151.87392 997.37897 1300.89126 1497.26035 1313.99651 991.41482 1101.56505 1137.75770 909.29394 713.08036 404.90578 375.72109 556.13334 684.37634 597.32632 548.97273 599.77513 450.90878 311.47112 491.02979 536.96695 635.72521 570.17259 428.28979 327.63795 311.77799 240.80300 176.46918 224.25515 310.42811 320.03905 250.84273 197.69735 145.55661 143.25579 151.39523 177.88051 185.83243 169.77186 157.75776 110.20096 148.23247 212.21775 235.13818 172.54888 198.13200 277.89519 261.72347 253.39537 212.03683 134.29813 145.36681 193.54046 198.57877 168.21360 130.47337 151.69648 231.27522 212.92785 213.27779 203.51733
22.58099 24.20049 25.25231 25.74701 20.44868 9.46161 -0.02453 2.74790 -12.01347 -0.98165 -7.65785 -3.95855 -11.93906 -15.58088 -25.47897 -12.82644 -23.07444 -14.86570 -15.64535 -21.10841 -26.84469 -16.93158 -12.08611 -28.54227 -41.14177 -43.74787 -46.81180 -49.98168 -47.10297 -48.51784 -40.32553 -40.15226 -35.36065 -37.04729 -6.75342 16.96071 38.25196 63.23787 29.74541 2.86664 18.62138 -0.16570 4.00625 -1.54764 -0.67626 -2.04954 8.89738 14.51760 31.29891 61.37221 59.90842 78.23715 114.85800 176.12533 141.50163 91.41612 68.69120 80.23530 109.18833 129.25982 169.37165 142.62621 119.83625 94.45083 73.17365 48.53258 67.01088 54.96736 59.17492 52.17395 36.09239 26.07179 20.45219 10.91426 11.29136 3.20809 14.30717 22.08041 12.35241 13.89655 23.31104 16.16730 21.18743 24.49716 32.48604 33.14630 25.73306 29.34974 33.25568 49.00232 74.56474 80.75937 122.75478 95.28597 106.86491 85.14379 88.92628 100.69517 100.08054 113.60374 122.15213 125.68145 142.12828 134.82208 139.22943 141.38078 184.08218 207.34700 217.44030 227.73602 221.40786 211.31939 211.78003 212.80343 236.36976 221.11319 246.83854 247.09894 260.18983 286.04683 307.89884 326.69643 314.02889 352.84461 381.72191 343.12571 290.47797 315.72503 319.11041 339.83429 373.08674 305.15623 352.53113 412.61252 415.47634 357.37284 400.67797 384.80517 404.43118 374.76220 458.18006 493.17641 434.72589 437.10167 462.17361 485.20847 491.18422 590.48745 616.93283 637.81323 573.18646 598.34615 647.89678 671.30801 759.93550 917.71769 1049.69364 1087.67972 1290.10683 1435.37764 1467.38186 1487.02394 1509.04841 1313.69610 1080.22813 995.14755 1063.10494 1342.31749 1442.26820 1430.73911 1254.79259 916.71751 1001.88807 1362.52792 1362.61730 1195.59862 1412.60924 1652.25741 1665.36155 1354.42700 1366.45323 1140.89437 721.12817 614.37567 726.26495 945.61984 1235.22631 1569.74600 1815.06712 1481.58697 1103.26839 868.48808 903.34497 887.55708 991.47576 1343.45469 1682.64936 1796.47993 1838.57487 1744.34415 1896.92388 1950.65702 1705.35914 1385.68713 1087.44399 895.23603 856.78395 744.07414 902.26574 1260.73274 1210.67207 838.84803 976.59289 1190.47676 1211.54992 1514.39645 1681.65027 1493.09135 1179.60034 1360.10248 1267.29666 1058.48546 1116.18274 1371.20598 1625.83289 1536.87767 1272.18702 1319.39696 1536.73660 1307.06170 992.96414 1213.68578 1392.02876 1563.08031 1566.12535 1255.83747 1175.58232 1056.61728 753.73252 493.88252 436.12718 642.07373 794.78300 625.79585 602.61015 672.65670 712.59420 626.96378 404.77207 569.67998 707.65617 691.17866 494.80388 407.58560 419.63019 286.18202 220.73299 260.46074 317.88551 347.05475 331.94772 229.00538 163.35420 168.16053 176.92043 200.92829 251.26147 244.19920 214.58522 204.30236 119.77197 193.79754 205.38050 283.20376 248.90709 304.54579 253.11870 201.68068 168.47611 156.89112 187.93585 191.32484 201.95272 212.23811 160.38792 151.28019 195.69334 271.00583 327.38070 291.62273 196.27030
17.37311 22.29329 16.50967 10.76106 10.70825 2.47145 12.70828 -8.25212 -11.35480 -14.62931 -9.30210 -2.02311 -15.99590 -23.11448 -24.96401 -26.00833 -17.61553 -17.37104 -23.10718 -31.09573 -16.74049 -17.58769 -18.65869 -15.13223 -39.66058 -51.52703 -45.09415 -52.67669 -45.83596 -54.01861 -51.54801 -49.93705 -63.57746 -45.68440 -30.18524 -10.41214 3.09334 10.17635 1.92621 -8.67648 -2.39835 -5.84371 -2.52677 -5.44300 -10.65821 -5.25353 -8.03141 2.96559 18.16930 43.69332 23.71289 37.03178 78.10235 100.35088 85.35816 73.65980 60.05412 77.66280 104.87869 125.72929 117.19026 98.44999 116.26737 116.24397 69.36996 45.29909 35.36487 43.93835 25.72422 46.33846 37.67917 18.62444 16.34205 7.72886 4.49567 -0.99354 10.66132 9.95493 0.21405 14.26700 7.92436 16.58314 8.62085 23.94968 33.86189 35.14818 23.68888 35.07223 40.33023 58.27386 84.51440 97.38178 115.33191 96.08537 96.24641 100.36162 107.80694 106.11290 111.05034 113.71128 123.59424 125.13304 142.96665 162.31007 156.88735 163.86750 173.41384 160.69393 171.89964 181.18974 200.57381 189.94999 200.91573 210.95924 214.98475 219.85714 213.21087 217.89162 244.72574 257.49569 263.38944 277.31245 258.72053 274.77894 323.84098 323.76323 298.77186 308.85417 292.75538 332.55515 320.98561 334.76199 357.99695 393.23931 363.95540 368.91221 454.49276 449.99854 460.75282 400.89251 393.01327 414.79577 430.25848 503.05043 579.05005 583.84825 503.31580 515.92520 517.41465 618.88581 672.97404 667.52792 649.68559 610.95101 649.33459 707.38254 832.61341 996.77586 1247.43308 1334.04690 1436.76487 1561.19344 1618.77223 1470.16872 1403.94351 1267.64994 1119.25699 1190.90017 1536.47524 1507.98184 1374.25087 1141.46866 990.61009 1293.82569 1514.41750 1424.08644 1440.91516 1666.54591 1538.26192 1171.47760 1022.95417 860.79928 771.99989 857.43429 890.97313 1024.88896 1285.26437 1436.64717 1640.23374 1617.56607 1195.77076 1012.59516 1194.17825 877.43301 1013.12043 1100.72779 1471.05704 1744.34266 1913.24629 1933.37720 1882.17836 1911.04014 1596.07599 1322.55958 1076.50744 1241.14326 1044.39290 1034.85876 929.52750 1279.72225 1259.11855 890.78118 1262.59481 1447.16883 1554.25706 1750.09498 1664.37052 1285.41190 1239.89697 1531.15097 1245.43098 1156.28297 1517.76181 1526.39838 1829.24238 1725.95728 1525.90365 1731.06455 1528.73128 1175.50112 1172.53013 1245.52383 1331.06341 1466.16693 1635.49764 1561.82321 1235.44774 725.92741 564.26657 500.21753 682.59393 956.62367 949.76662 718.84989 712.58682 795.08401 657.80786 538.93906 398.72892 529.41040 767.91511 726.17479 528.02357 556.24393 502.51169 301.30120 239.06115 296.93874 349.49338 357.44749 262.42758 236.05919 195.03588 180.02211 166.63771 238.19316 341.86410 295.62556 270.41076 199.01165 122.60661 199.62654 236.98217 343.33840 381.48997 373.74300 247.28821 195.05812 253.90458 214.34800 273.23927 279.95180 271.31892 210.99918 171.08752 170.34811 187.47743 237.58873 377.65279 409.91104 238.77359
19.56153 10.86291 14.65919 13.43493 11.19094 4.88849 11.85591 -7.86950 -1.79528 -5.94114 -12.24483 -16.81671 -19.17290 -15.19714 -16.66958 -18.18902 -23.43989 -19.39097 -19.30259 -19.88718 -19.54770 -15.45609 2.74512 1.46041 -36.45592 -45.78157 -48.16361 -51.12325 -58.97216 -65.40703 -58.71563 -62.58936 -60.47353 -57.15031 -45.72425 -20.86043 -11.27948 -18.32340 -11.39121 -3.37874 -17.68453 -2.03455 -13.46135 -6.39759 -5.64465 -16.85468 -10.69342 12.58815 15.98179 22.45261 19.92452 15.93813 35.20978 51.73859 31.17123 39.87011 63.06011 76.25730 66.21020 71.33296 84.30682 86.99858 89.42474 97.41994 80.57284 48.64450 20.30369 23.30046 13.94810 16.71670 18.78400 6.33881 15.09564 8.73259 2.43934 -0.99457 9.20987 -4.51964 8.63097 7.17053 18.19478 14.86648 20.36172 19.86465 27.37875 23.75092 44.57813 44.42511 68.47073 81.82986 87.69156 90.53953 88.66920 89.26614 92.11380 101.44623 101.97903 109.67830 118.42348 136.03881 133.98102 146.36024 141.04824 145.60252 167.07493 203.78056 205.32444 187.37777 176.99327 185.87625 173.07845 203.47090 202.75980 206.22410 225.58528 237.83167 242.29149 226.98116 257.82497 268.42960 308.21875 276.72349 265.43560 280.71776 286.28469 278.60748 273.09746 348.20081 329.51202 334.61229 345.18442 407.04991 367.99205 328.93900 366.07125 426.98373 526.31432 533.40896 552.36958 493.09514 432.31611 460.88322 447.59149 532.71827 646.66037 720.70806 656.09349 646.93741 567.32315 524.55925 659.70201 809.08651 803.32798 718.55831 808.64167 825.24514 795.07211 969.68195 1179.02759 1081.44894 1213.63493 1334.12897 1437.37809 1607.10765 1666.97344 1548.29430 1446.46691 1275.78024 1438.24128 1606.50088 1516.59978 1291.61038 1165.65616 1269.09531 1555.76014 1496.34587 1591.70189 1630.76139 1481.77351 1068.34879 839.17131 937.98782 1105.17924 1110.48903 798.16304 751.27490 951.53504 1115.72938 1525.44944 1573.45666 1172.63862 1132.92041 1270.36946 1038.98466 1201.21841 1201.87981 1249.33954 1475.89096 1680.00278 1824.65054 1899.27353 1699.97674 1393.34280 1304.08791 1507.80493 1465.03926 1174.23850 1190.80689 1061.61651 1298.90337 1355.57329 979.03131 1206.88410 1393.55805 1738.37719 1801.20535 1718.63282 1333.89044 1393.82440 1573.61958 1491.86778 1284.94156 1620.87132 1517.93665 1968.52713 1960.17116 1794.27257 1810.47401 1531.99887 1146.98095 1327.87408 1547.33709 1379.89328 1248.68315 1115.30486 1173.61500 964.26446 548.50797 543.67653 722.52869 909.87923 916.78568 790.50712 746.13509 956.91527 833.52826 814.95808 623.02257 454.09918 712.91316 892.49646 900.07598 786.52783 599.71961 381.92620 305.59677 355.74012 425.65298 435.29169 403.79047 307.35927 278.18252 226.67307 172.17359 194.80260 335.98793 410.56402 468.78571 339.81903 274.22766 172.91878 214.36405 321.82298 418.29921 396.86950 410.98678 282.23874 209.46465 267.11749 325.75574 349.51461 319.22502 260.01273 188.83518 202.43802 173.50768 202.85017 259.67276 376.62226 419.85169 261.51198
8.48449 15.85795 12.46164 6.60064 10.06798 -3.57048 -2.24730 -9.60020 -11.20696 -9.86554 -17.05535 -17.90883 -21.65986 -21.33706 -27.00382 -24.88699 -27.00298 -23.35724 -32.45237 -19.22385 -21.18861 -0.08425 -0.59277 26.31817 0.42160 -36.28148 -48.65127 -46.34901 -55.15127 -56.39525 -59.69427 -64.44933 -54.88537 -69.19973 -58.40666 -48.35742 -62.02231 -84.37404 -79.54870 -49.21156 -25.43407 -19.17012 -17.37706 -7.32873 -15.08375 -7.10469 -5.98185 -7.23125 4.20447 0.28207 7.15740 14.35598 15.91126 33.41385 17.92423 34.60647 46.10489 45.37551 39.11924 32.72704 52.54612 66.35424 58.93818 67.01084 71.41364 44.46721 22.95498 30.25996 12.05784 18.35425 24.56973 10.58569 -5.61551 1.78160 1.02856 -6.12317 -2.46455 -12.50407 -3.99100 -1.73217 9.64569 15.72652 11.51412 11.14609 31.53210 31.69059 41.13597 54.49034 89.26735 99.04072 89.00197 84.24506 86.01255 86.12291 91.41694 100.03587 94.43680 115.71829 127.65773 125.96235 148.37879 160.61614 176.73509 170.46272 176.31935 188.64443 232.58941 218.21651 205.44549 215.95495 194.59955 228.28980 228.21748 209.57918 225.31612 223.73293 231.21611 247.41172 261.69344 294.85720 331.24896 321.73266 292.53106 296.79357 295.88924 340.74126 317.58655 326.26033 327.39301 326.49373 408.14098 420.75800 417.24556 418.13406 433.60679 443.79597 548.30670 622.28254 600.16491 524.67987 449.13483 568.37388 564.27659 494.07867 590.59931 750.79766 830.84485 823.93728 543.09076 614.37990 794.38310 955.90846 958.39227 862.42932 891.23364 944.53642 759.25307 804.27529 849.36563 976.49211 1127.96735 1337.44563 1423.39448 1570.46598 1688.52219 1787.94483 1751.25124 1420.56786 1441.09889 1615.13077 1693.09853 1499.03275 1255.81120 1224.60689 1420.87081 1604.61346 1678.68914 1613.60586 1311.65377 1125.94545 885.71538 993.23996 1260.99251 1239.38074 1011.16543 765.22996 1209.78708 1358.85617 1537.57711 1589.87057 1408.67625 1301.90313 1459.51036 1191.98858 1318.45244 1638.14082 1291.17725 1342.34624 1426.59481 1904.38332 2088.69446 1841.50264 1462.19424 1405.65264 1719.54535 1482.23809 1463.10808 1387.05326 1012.64459 1263.69924 1385.65007 1179.05995 970.46725 1195.25434 1682.72358 1757.31572 1591.84381 1395.84207 1719.05407 1801.88343 1704.18378 1435.28463 1452.64228 1843.74935 1944.09870 1952.19551 1826.44310 1558.65964 1453.78092 1407.05085 1439.27279 1594.35566 1485.01237 1261.17720 964.99324 791.63060 583.29010 506.02227 697.72271 847.66643 1077.93854 936.56835 816.22973 981.90859 1118.41760 1225.13345 1033.11538 831.01365 493.17413 675.10449 1055.76901 1009.74783 740.00910 574.64925 418.41265 404.91331 428.39121 491.50270 465.33235 383.59847 288.29590 257.11609 201.48216 185.07778 239.64491 328.46544 443.42684 489.37383 388.05339 298.92610 203.71559 262.22741 345.47981 404.69278 307.74106 307.65096 302.13121 274.20172 255.89478 364.20550 414.09771 328.85496 229.93175 179.69631 174.27229 171.97221 194.60004 237.03110 370.57803 430.69493 316.81667
27.97642 15.75780 1.40708 4.52716 8.20223 4.11695 -9.21221 -10.87429 -7.36917 -19.45694 -26.35830 -18.51307 -18.28841 -22.79504 -11.65966 -11.79758 -19.37119 -25.99201 -4.13185 -23.04464 -11.13931 4.69599 12.15253 19.32239 1.99767 -40.32446 -48.35382 -55.29712 -47.48679 -57.65109 -62.51704 -65.76956 -66.94580 -68.15260 -77.17576 -87.27542 -89.77986 -104.19550 -110.00636 -88.56591 -56.75331 -48.50342 -25.01016 -13.53428 -19.96033 -9.47266 -21.34846 -7.98674 -12.44889 -8.68228 -12.59500 1.72887 5.76135 1.32061 12.84875 23.72066 41.32705 31.83468 27.75120 46.42629 59.43291 57.58934 47.34609 64.12527 80.80859 60.90205 25.74477 10.51905 10.42814 11.22824 -7.18721 -8.94095 -11.61579 -6.08232 4.36802 -4.77334 0.77285 -6.13539 4.00664 2.28701 5.15107 10.24169 15.80972 16.11818 28.87439 66.03145 91.45625 110.58562 107.88440 107.02535 82.08501 81.44273 88.50668 88.56719 90.90494 86.97087 101.14541 108.27498 113.77723 122.99854 129.08595 160.69325 176.93745 193.35240 215.56164 224.71657 243.35261 244.89894 218.40826 234.27624 248.53582 261.12891 274.98057 220.97128 250.66780 274.75283 225.68147 260.02452 273.80759 345.31389 382.81202 395.39550 352.57727 314.00139 311.04108 379.94291 354.03007 376.62421 378.86844 361.79961 356.17552 388.19579 391.33188 417.89610 417.48981 458.05920 530.79876 663.77177 677.49312 593.88475 511.66752 590.71328 641.03820 672.60027 653.22706 690.53123 879.16782 904.15299 760.88386 563.86197 683.24037 912.95622 1054.25806 1156.25530 1184.66774 1157.02693 891.58642 816.04553 1049.53405 1181.11010 1244.19640 1397.50407 1510.84984 1521.61067 1396.40653 1682.04098 1857.73175 1724.39790 1662.59170 1768.32648 1764.08170 1470.32252 1190.40350 1268.26781 1458.56646 1737.55065 1797.97495 1732.00769 1279.24681 1052.30235 904.88044 1083.81511 1342.66469 1303.62265 1028.00956 787.18667 1039.79681 1443.40307 1547.79558 1702.50791 1648.17883 1642.60942 1636.29329 1342.04008 1243.01495 1518.06709 1612.00836 1460.85400 1611.34313 2057.69910 2178.70850 1718.16694 1658.81786 1727.06783 1851.76975 1702.57021 1646.82412 1309.52190 1113.33230 1463.49809 1560.61128 1194.38623 1020.61631 1420.81369 1731.32239 1857.92582 1592.27147 1480.52448 1744.31467 1956.50377 1804.78174 1470.62511 1455.12110 1791.43103 1920.17110 1889.63262 1616.80084 1481.28235 1476.74864 1832.88437 1683.72864 1483.56708 1553.10140 1384.11336 1085.81035 913.25411 633.39132 721.97063 1058.06967 1083.29797 1157.96753 1134.46367 943.45640 1181.09164 1339.69260 1199.18257 1039.59420 781.38288 604.13951 941.47543 1193.74581 1085.15817 728.92856 541.67617 601.45073 663.07082 610.66733 564.82393 450.34729 309.40971 266.22873 272.18596 281.89299 246.98980 220.14806 270.63184 344.36449 452.99355 490.88296 405.47606 298.12997 255.41304 323.40344 313.36496 284.73562 271.14322 279.62394 381.59446 341.22634 394.73649 457.44038 315.68803 226.73951 207.79348 210.67422 201.12074 190.61790 226.31249 299.40120 475.94236 523.04353
18.64335 15.30480 3.37131 4.14783 3.65544 4.57156 -5.84869 -12.09349 -8.64949 -7.45571 -19.45874 -18.02441 -7.78102 -9.60660 -6.80530 2.76094 -0.33606 -2.15423 -16.16228 -31.43210 -25.04916 -29.91788 -23.95798 -30.95608 -46.17105 -47.83935 -53.96051 -54.62767 -46.86978 -67.01547 -54.24404 -63.40917 -69.60773 -80.55036 -70.67700 -80.64373 -101.18521 -107.68958 -124.34666 -107.80360 -96.61441 -68.27523 -49.48956 -33.42247 -26.75791 -23.88020 -21.92260 -16.86366 -15.83745 -2.06878 -7.21464 -2.83727 -5.21273 -0.87625 13.67195 9.90947 21.65501 9.01965 22.75441 56.89901 52.92917 31.55206 25.94237 33.17528 56.03294 45.19857 6.75824 0.31237 4.03279 -6.48372 -9.40844 -5.42193 -14.64069 -7.90201 -14.99677 -16.03354 -5.74951 -5.71573 7.40236 -7.54599 -0.31424 8.21913 9.90800 12.50437 48.82565 62.30005 126.58325 105.03280 102.25365 92.71234 76.45815 81.40327 78.36749 93.05333 93.24165 102.46923 108.44812 115.13257 128.00016 132.44996 135.87989 136.33418 177.17634 216.97145 227.19091 266.69697 292.88020 267.49994 220.80150 248.77480 279.93272 305.86393 275.62114 242.13288 302.06072 261.56228 254.31630 288.64048 289.16682 345.72279 380.47605 423.88673 411.05488 369.92662 371.59116 431.52155 429.66929 418.05369 424.08524 410.37105 367.84945 427.98112 427.03026 390.77726 390.40253 429.99668 533.82104 608.10935 627.79678 641.58094 620.60654 643.97856 812.32588 910.44407 927.17524 800.05080 835.67493 904.13253 814.70532 622.44633 716.92636 914.23204 1175.52369 1231.95501 1355.91523 1356.56855 1075.19099 846.73171 970.45564 1122.94746 1125.45681 1287.36676 1265.34225 1210.50666 1307.41383 1563.51739 1668.37709 1732.07279 1816.22344 1855.50729 1780.63642 1609.57998 1298.94874 1314.94708 1488.06752 1783.70723 1942.41607 1850.17496 1505.12829 1300.19014 1030.91042 1201.24364 1432.75205 1325.66168 1096.62282 910.84494 984.55285 1145.26507 1490.66301 1712.07359 1754.33889 1756.19797 1566.42106 1313.89466 1272.03780 1546.73500 1689.23375 1709.77837 1893.49687 2029.91878 2188.71362 2129.35688 2055.78288 1953.34910 2053.57224 1936.50513 1774.03307 1398.25623 1527.42515 1562.34849 1624.24426 1384.48419 1105.04397 1355.13204 1749.85871 2019.20506 1869.95226 1772.36701 1676.01295 1919.37652 2006.34408 1738.48203 1749.84600 1751.44413 2051.12686 2036.74347 1968.77785 1889.45408 1876.76841 1795.78751 1569.54879 1273.78577 1071.60176 968.37711 754.98004 689.26396 600.97275 937.61464 1177.28688 1461.57673 1417.07450 1127.59724 1042.47139 1385.55008 1375.26242 1149.93803 949.10239 792.20536 663.02455 1026.25125 1172.44949 1003.38560 728.93786 703.91596 766.26919 665.91139 627.73528 529.93388 344.54064 257.71186 238.54369 324.62855 332.77866 231.65737 269.38772 374.93315 399.86401 534.21885 572.44404 482.70487 373.11208 294.95147 325.59176 336.90846 423.19202 438.92725 440.33267 488.00055 467.47039 395.93015 316.74230 320.16707 221.07595 237.75170 251.19421 224.76761 197.99076 223.42539 285.41471 485.92610 574.51973
18.00582 20.85613 2.56509 4.10784 -9.39027 -1.12200 -4.28837 -25.35807 -20.11886 -24.44493 -24.39412 9.31674 -5.35620 1.69620 4.86211 33.84494 29.24193 10.99662 -24.33079 -27.87235 -33.61106 -52.90833 -65.75813 -85.49920 -67.77952 -46.14809 -63.50787 -70.48866 -73.50535 -68.97184 -77.60728 -72.36034 -83.48456 -79.70795 -85.12283 -96.82702 -114.09054 -126.13090 -127.40954 -136.74656 -147.16008 -85.42785 -72.86953 -54.92711 -45.49593 -35.76935 -30.09729 -17.75185 -17.85711 -14.74528 -20.71129 -2.74445 -16.97038 -17.27160 3.35547 -3.49073 -4.54768 -0.10684 30.20130 64.36785 35.76136 17.59828 15.28384 8.99040 15.75888 13.52833 -5.02899 -8.38482 -10.24464 -16.50167 -3.32639 -5.98426 -10.32505 -26.36665 -4.38792 -1.88767 -11.39507 2.76428 -6.95651 -1.57402 3.34519 5.43852 12.94906 36.18528 69.73800 85.53053 137.71861 124.13870 78.57667 72.44372 76.06194 66.14153 78.50589 84.53139 88.35012 100.30108 107.03139 117.77917 125.17920 171.71135 159.25999 143.22735 154.25535 186.70060 237.45552 267.64449 280.14041 284.33418 266.99668 271.12845 310.93431 358.41169 318.71785 290.29556 342.63220 325.02189 247.59995 255.21365 272.47379 306.35989 329.03221 374.90556 393.18870 423.97528 439.78915 475.43245 501.20381 481.64664 460.90436 380.06800 386.33883 488.87502 495.22336 481.61776 460.43422 419.28741 431.85089 532.38525 583.87588 656.44883 767.04764 761.39138 983.12198 1029.85927 1068.39650 927.58197 1007.11871 1076.01806 785.36955 696.74120 793.29476 958.23435 1054.27642 1107.43021 1316.43475 1407.55896 1316.06052 1095.58745 856.28591 888.30749 935.93946 997.34395 1055.87657 1160.00872 1316.30464 1452.49056 1438.15131 1544.83527 1653.87203 1821.74074 1836.19445 1660.05295 1263.75897 1515.39214 1830.47994 1848.51171 1990.94225 1837.04063 1463.66334 1103.78171 994.96599 1254.47967 1505.23144 1395.99227 1184.56458 856.65537 1003.41735 1120.15868 1299.00152 1434.68238 1657.41285 1854.74106 1544.03529 1457.86151 1402.23226 1413.42298 1630.76028 1851.89971 2130.31843 2273.37632 2405.80540 2346.91625 2295.94035 2445.90570 2162.67195 1852.31786 1640.98751 1361.07237 1654.25187 1791.84430 1606.34769 1513.92057 1222.88117 1492.81899 1761.54712 2004.13585 2251.54354 2179.44824 1941.85817 2156.70718 2199.56340 1873.17172 2098.51726 2120.74773 2217.12261 1926.26273 1919.01369 1827.38178 1664.11405 1426.38918 1228.50454 1053.89739 833.34283 706.69269 790.19544 953.82778 786.88772 871.95342 1398.71160 1585.38544 1386.67710 1104.06474 1158.91164 1456.71292 1423.49936 1120.45639 1208.52486 1121.29582 741.28826 963.06697 1143.61358 1029.78632 839.33775 841.25135 751.36668 594.14193 497.38790 525.26349 453.64183 284.58672 336.43135 376.08548 378.59086 222.67166 306.54937 437.86189 575.34666 667.64676 617.25630 451.43552 380.99807 442.21487 448.46721 400.18079 547.70101 562.07436 534.90374 481.88949 468.16347 310.10071 253.40840 233.89512 295.72560 288.21007 276.97798 254.98525 214.20362 286.84604 403.40114 444.60405 559.44554
21.93331 12.22851 8.82715 2.27172 -6.19187 -0.65985 -4.32035 -21.17623 -18.96028 -17.62603 -8.42684 3.65356 3.55335 7.22573 26.65460 56.01077 34.56237 -18.06773 -20.02731 -56.39362 -54.38419 -61.34420 -72.78047 -91.43246 -101.68992 -83.12106 -99.56727 -120.64904 -111.63746 -119.62772 -90.50426 -89.29575 -89.98108 -99.95294 -77.97110 -110.70980 -109.11093 -144.65593 -143.59569 -160.03840 -137.13258 -129.49823 -94.71968 -80.72175 -49.47476 -43.27641 -36.70840 -27.28569 -22.97535 -19.83445 -14.04376 -17.34485 -4.93607 3.33017 -13.11017 -0.23647 1.10243 5.23826 28.63767 46.72002 30.90892 -1.71102 -11.87671 -1.95534 -11.32943 -5.19752 -16.45545 -7.58156 -10.11525 -25.78822 -12.27192 -20.55431 -15.20521 -10.97235 -10.88325 -18.36818 -11.39246 -4.45398 -15.72817 -6.92468 3.04163 14.09122 24.07509 41.24048 73.89729 167.47175 169.56650 89.33907 67.07584 56.53694 67.85424 72.06628 93.36121 89.19807 101.62306 110.94843 113.85746 129.54616 171.76737 181.96611 201.53108 164.67212 153.31531 171.26623 215.56531 224.12529 250.76485 268.49959 302.69561 301.33234 342.83548 389.47931 387.61873 360.92148 374.88403 326.68359 278.28158 248.05101 287.66955 299.78884 275.50095 317.93788 369.09588 438.19893 460.89027 517.16898 547.07611 584.71867 458.96315 465.07597 492.94943 481.74237 551.28538 592.50967 586.56659 450.75753 496.85491 642.02815 746.29548 757.08691 905.06681 970.19500 1059.16502 1180.21176 1215.94081 1159.41682 1175.57913 985.61569 800.27854 637.24236 652.56884 717.29574 811.93927 957.35023 1156.37891 1353.79954 1420.12288 1247.25918 1052.22109 1105.83074 1217.57687 1051.79897 968.64541 1076.21553 1143.11590 1105.36463 1156.11344 1305.91830 1593.35118 1862.21818 1961.51484 1672.24147 1366.06030 1513.90546 1825.38360 2043.34022 2004.91422 1646.60824 1509.47676 1153.72768 1371.52499 1474.42371 1484.13952 1381.25055 1001.15881 881.11121 1050.15041 1273.76278 1328.30650 1550.54894 1767.20088 1806.26870 1783.74680 1728.21251 1570.99446 1711.92970 1685.91992 1965.02384 2192.69548 2381.43197 2287.62041 2030.79924 2089.78646 2334.66980 2203.17730 1768.18283 1565.98101 1550.43877 1618.49437 1900.73088 1723.58323 1472.67733 1406.02691 1359.77551 1555.94031 1874.88607 2283.67591 2459.15194 2224.64197 2395.37378 2509.55407 2160.08372 2289.33802 2381.91594 2209.90681 1839.55155 1565.90159 1404.01381 1275.69045 1149.42849 1063.44064 1155.60308 1098.85191 922.94409 832.80137 1073.13683 898.94996 951.63029 1286.30562 1682.96195 1516.06366 1251.46400 1292.54016 1617.48277 1595.95757 1421.55895 1305.89617 1072.82174 852.01722 1003.89097 1200.61292 1056.69516 895.93756 717.95815 565.88578 444.98846 345.33041 353.90575 317.71958 331.43156 456.21241 375.96564 356.97540 236.78873 302.67717 444.10726 622.93707 733.19323 626.41566 566.54494 518.95252 504.36644 418.06016 455.94164 630.10598 662.65048 618.34206 408.65598 318.90235 303.09844 304.83800 319.67568 323.74945 277.99233 249.80976 237.59640 201.88576 268.02809 313.91261 422.53096 529.21490
16.27643 -2.80079 -0.67579 -10.57784 -7.15055 -3.44424 -20.36709 -13.83700 -14.55530 -12.33615 2.55180 17.56569 19.91293 36.82081 71.12401 66.22248 21.88593 -15.39713 -61.25585 -82.15943 -61.87331 -72.40581 -95.60127 -116.00171 -115.65140 -132.23781 -143.44785 -168.41456 -169.80475 -147.29953 -121.36086 -120.95647 -109.38683 -98.93976 -104.22882 -120.23230 -139.37587 -144.09185 -160.66828 -157.23634 -154.39013 -144.39545 -107.30553 -96.46623 -91.40581 -66.10566 -54.03308 -44.20351 -22.14325 -24.78881 -19.03840 -11.63964 -0.32563 -2.03821 1.63511 -0.55471 -0.45017 18.19050 10.19283 19.94654 3.78984 -6.11389 -7.47129 -17.64209 -26.61008 -29.99437 -30.41229 -20.89469 -19.95658 -21.03191 -23.27615 -15.60019 -15.62778 -17.35968 -8.74264 -10.15318 -6.83886 -8.34527 -8.52138 -4.23768 30.85199 45.23583 50.55191 64.59993 77.69243 136.37568 132.67175 87.52863 65.87465 53.78082 73.71864 81.00544 76.33543 99.33745 105.36414 107.33380 114.82186 146.40094 159.37888 189.20994 208.82916 192.91372 178.05053 174.54080 207.81210 187.52194 193.42717 222.46126 261.42256 304.74070 349.64646 403.27143 417.29878 403.12929 403.03432 334.67189 324.43649 338.18301 293.65891 290.43566 330.04140 325.71756 355.36921 370.13195 407.00276 485.66618 595.69094 678.54515 651.42139 669.61704 587.61655 610.25387 681.19507 734.98696 666.63809 535.68104 559.86036 642.65742 741.85057 847.56098 877.70415 971.71452 990.38319 1109.28706 1161.02164 1237.35842 1249.74183 919.06961 734.71234 837.57663 768.06255 644.64273 734.74568 902.32210 1082.93352 1180.18849 1232.08904 1248.17749 1145.37518 1326.59646 1337.84552 1168.79844 1091.50516 1112.43268 1125.65412 1349.21307 1213.60385 1295.81094 1659.89736 1703.84073 1931.60660 1902.39364 1553.72709 1544.01715 1867.72574 2001.73912 1840.20197 1543.20167 1353.85689 1160.82724 1338.57825 1500.52650 1312.81305 1091.44544 970.99226 1099.64896 1014.74284 1080.99430 1270.72530 1318.60628 1555.06600 1732.03909 1793.08860 1867.84955 1729.99273 1930.84268 1962.57407 2195.14988 2127.40944 2167.03430 2073.15384 1858.44794 2017.83560 2347.57562 2272.86257 2055.75922 1977.44572 1831.01202 1769.26612 2011.74933 1802.90542 1759.13751 1850.42726 1495.90725 1602.57319 1749.47557 2229.40746 2429.01038 2437.90532 2427.62231 2316.91523 2406.98510 2439.72586 2302.98393 2030.25138 1699.62308 1527.27754 1351.86485 1253.21904 1392.64369 1437.06812 1366.35387 1225.07903 976.19184 1068.40838 1175.69539 988.65221 1030.19251 1234.09130 1744.95434 1871.36116 1682.23323 1420.79925 1691.81533 1744.71103 1604.23475 1429.09600 1137.78362 953.80992 1138.88064 1257.99296 1084.66320 839.07186 594.16645 527.31361 390.04427 372.71570 440.67568 333.66655 399.25386 517.93987 435.13303 288.38907 276.12753 366.83625 458.38728 525.64758 608.78536 640.78007 770.33182 721.39187 590.37485 458.83187 653.95822 784.37052 680.93000 587.90377 432.71530 361.36572 346.47875 420.33290 395.27886 326.14760 276.97556 209.68816 212.80388 201.06146 303.54497 306.92548 391.25960 441.59950
3.14491 -2.17708 -1.11205 -7.59924 -1.82736 0.07033 -7.03750 12.74817 5.05844 3.57704 10.41654 35.47582 24.85131 42.66858 49.22451 39.24219 6.49194 -39.69604 -76.32991 -88.30415 -88.56488 -105.02954 -109.08692 -139.40007 -152.47698 -163.51729 -202.46050 -221.30089 -229.28833 -180.59300 -141.94857 -139.04688 -137.95596 -133.02468 -141.18875 -157.08354 -159.64327 -159.99416 -170.43406 -152.05080 -165.37129 -161.64205 -130.59000 -127.00246 -122.54968 -98.89784 -76.50786 -59.59853 -51.95052 -25.07761 -34.90640 -35.15605 -11.71565 -10.98224 -21.37335 -17.60922 -5.09310 -8.54799 -3.88658 -18.69814 -20.50129 -38.97833 -33.36135 -23.46721 -38.92708 -44.45599 -39.49944 -29.26093 -21.55528 -24.34769 -30.51219 -23.75360 -31.03784 -20.77847 -1.12595 -14.76073 -17.16578 -15.08590 -2.36167 7.24570 51.45764 60.78393 71.84482 83.93817 83.27457 68.88129 74.58712 55.07990 65.39243 60.39976 69.89236 81.75222 90.41490 97.50530 93.99729 125.70891 123.51792 137.90204 146.21538 177.11180 220.49036 216.23275 211.60323 192.54057 205.92130 225.56719 258.99027 238.07293 217.54136 236.02373 328.07538 355.44098 367.14930 398.49677 433.76523 406.31568 350.33605 367.84957 300.54233 296.30796 352.89313 379.99319 379.80943 414.38842 432.29476 500.61846 591.86678 767.73536 753.10937 830.08169 762.27460 755.04946 834.27175 844.01583 798.65681 680.55735 650.37004 541.78930 593.27252 625.59609 688.98713 757.63284 756.61375 909.17615 1057.62921 1191.90839 1179.34549 1051.75168 871.08759 942.84922 795.77958 853.32652 794.75968 810.09020 850.10060 1033.48819 1183.98994 1330.58505 1339.21493 1461.02753 1532.56287 1384.52225 1305.45396 1182.68963 1162.80954 1380.05227 1462.83652 1357.04234 1479.90192 1642.33044 1906.26223 1971.25521 1861.77408 1697.35331 1962.47295 2056.43292 1759.27094 1440.80573 1421.45574 1277.47814 1485.60816 1571.80575 1343.84583 1148.49066 1300.20672 1174.25989 1273.34286 1144.63685 1240.50518 1173.66301 1239.96867 1672.87952 1822.14419 1929.25441 2048.73461 2055.74590 2112.87284 2115.74099 1969.24560 1874.13749 1810.20184 1708.65465 1896.21118 2391.32665 2505.83982 2424.71499 2175.80248 2248.24608 2081.33426 2086.35559 1958.43512 2149.17982 1920.85036 1750.77695 2045.90753 1956.03993 2099.35670 2394.27403 2409.52151 2244.22273 2057.87992 2246.27142 2142.08061 2171.59110 2116.94210 2020.84595 1859.94047 1717.88720 1682.19295 1625.90453 1625.29866 1437.72710 1275.02304 916.00220 1234.55741 1281.04855 1062.74269 923.32524 1365.13908 1538.15571 1911.44104 1706.19775 1584.43411 1888.60357 1818.06204 1445.58332 1239.82062 1180.69980 1231.39228 1254.03830 1249.91782 1128.30144 1019.19273 854.57638 537.15402 388.89351 488.18534 464.98447 404.15721 375.27550 500.21713 436.03335 295.31789 303.81849 278.98929 368.34360 402.18487 507.02715 715.17311 969.10008 871.91423 665.80575 563.28190 731.92173 796.82645 712.52298 512.37138 476.53837 503.90722 442.12714 417.90544 402.20112 270.20803 247.86828 213.22619 251.42529 241.72263 250.78004 230.99643 256.86681 298.27880
-8.39172 -17.89671 -23.71484 -16.95752 -9.26320 1.11102 9.91680 17.31953 32.97744 26.23093 3.73396 12.88919 8.76805 22.95273 34.33252 4.83323 -20.14870 -70.66768 -109.33068 -133.85050 -117.97009 -136.17014 -138.77029 -133.97445 -154.23972 -194.37287 -234.44997 -261.53042 -263.03311 -229.15231 -181.40954 -167.87063 -159.16799 -168.41861 -158.14464 -169.08474 -169.54859 -175.60425 -167.85311 -176.68556 -172.49499 -172.85849 -160.30347 -160.06866 -136.70243 -130.71978 -109.43815 -95.43474 -71.75217 -57.44981 -71.25714 -78.65371 -61.63522 -65.25813 -43.81806 -63.30492 -61.47416 -71.85650 -54.84939 -70.56944 -94.90535 -88.78820 -70.45614 -47.73203 -50.54014 -51.34266 -41.26725 -46.19321 -29.21317 -39.38583 -25.19837 -22.53458 -17.85161 -23.06803 -9.74449 -15.11407 -8.17493 -7.39918 3.17367 28.66225 57.41332 77.37352 83.92414 77.12809 56.01240 41.89349 52.68154 63.53856 54.65022 65.35082 69.56756 84.54540 101.73813 112.65861 117.02729 125.08589 137.22285 154.59727 158.21058 150.71507 206.26484 211.40456 217.98772 248.63476 261.60404 237.28348 241.19098 281.36976 307.20303 306.26691 253.80012 290.49532 330.52443 392.43823 461.35066 424.79692 368.55819 312.78254 319.59937 305.45380 398.54191 448.57272 478.63728 572.34391 518.65823 566.99615 597.09001 692.10565 710.70919 778.04800 768.18285 706.83291 828.03402 732.92475 733.40776 692.24917 683.79369 724.03495 754.63899 821.37754 777.68086 850.75683 821.63654 825.54161 891.10118 1061.81990 1243.51070 1096.57400 1023.71607 969.44518 961.48859 1070.32742 936.94643 758.35353 754.61884 908.62159 1106.74601 1182.56478 1238.66451 1453.29127 1623.62941 1604.04765 1519.15538 1485.53542 1323.43266 1262.29010 1398.44974 1554.11901 1515.65264 1552.03220 1770.68825 1881.76682 2020.87933 1942.70142 1996.05023 2193.46536 1795.83114 1739.89405 1752.57437 1535.64013 1611.56999 1645.42533 1277.84187 1249.60256 1365.94545 1339.14590 1470.79565 1270.83295 1349.19029 1431.34202 1247.96720 1358.11914 1614.60663 1844.87709 2158.97552 2174.71278 2102.54296 1929.81223 1768.52077 1638.24681 1575.46780 1606.83513 1803.57831 2233.22949 2402.51268 2498.16960 2151.25235 2204.66852 2397.91146 2424.56539 2375.72990 2327.64481 2211.66205 2039.37684 2337.10306 2349.17544 2252.36686 2036.64231 2060.71430 2064.45142 1954.79836 1880.04740 1809.19331 1945.10469 2138.08017 2374.08152 2096.58466 1842.02823 1782.41995 1732.30474 1428.83180 1177.65305 1022.61734 1029.11615 1201.42061 1271.96545 1123.06139 1005.92067 1107.58506 1482.11292 1844.59267 1938.98579 2059.52859 1932.34327 1851.81543 1570.61434 1444.54816 1426.98912 1371.53334 1101.56202 1008.75128 1031.58380 967.91718 806.07658 471.33839 433.72892 639.03395 695.88613 492.22460 460.00456 548.55189 437.70736 332.59879 387.55524 362.91702 326.31667 350.73315 417.14276 552.20239 796.04202 817.48711 714.80675 584.54450 719.84262 818.35569 805.54887 698.45581 545.19944 561.27315 537.19890 381.46713 361.78640 279.83193 229.84820 233.51633 246.42763 276.32752 278.20729 247.93829 254.31065 267.19331
-27.89006 -53.44932 -39.04742 -12.82877 12.34242 14.02773 25.68749 43.58143 48.25387 32.74758 -18.69884 -16.64513 -13.53098 -0.33928 -33.49097 -60.69658 -103.67637 -168.29814 -182.33102 -183.43621 -166.24878 -179.66517 -186.17965 -198.62016 -204.41917 -233.96042 -278.32818 -290.48335 -257.77885 -226.68542 -208.49865 -203.29964 -187.85214 -203.83100 -206.45354 -189.79629 -192.80072 -175.22171 -184.96752 -182.57192 -195.05258 -196.96600 -189.13294 -176.97956 -169.39273 -163.85768 -146.33773 -132.52414 -104.95677 -98.75797 -117.45405 -138.15925 -134.74790 -116.75026 -104.73232 -123.45485 -129.27994 -112.79175 -117.25757 -121.09022 -119.52208 -107.07388 -93.73240 -69.67389 -60.28437 -52.69733 -49.29065 -47.05480 -31.85767 -40.20372 -38.11416 -24.83996 -27.76305 -19.90274 -23.34218 -22.30996 -4.77503 -3.87347 -2.30715 25.87519 37.68933 76.16912 83.98165 31.30321 45.78505 47.68574 54.89573 63.03567 71.78172 69.16161 77.88448 87.50554 103.27494 113.08713 110.66867 126.87672 130.08095 132.78274 167.18356 161.03300 161.45085 187.82201 182.50509 237.37709 286.47024 294.72282 282.61348 354.39210 398.45763 342.00496 251.58903 350.33396 419.29369 412.61790 470.68510 410.35080 391.70887 346.65419 370.71257 315.02921 381.44340 435.07463 512.42105 614.38853 499.42088 458.72062 443.46723 460.87580 564.75809 626.52464 555.81311 562.37705 641.92350 658.08483 778.13786 855.06364 778.66644 713.09057 788.98236 925.25657 1013.28243 1004.95619 940.60589 875.13520 868.84472 1090.81523 1196.75393 1286.62592 1330.80370 1038.54403 928.52833 1113.94395 1192.90114 996.83073 787.28181 1071.01777 1118.64817 1175.02858 1346.35793 1529.68792 1522.44411 1557.30254 1687.84783 1640.61543 1565.78891 1431.77624 1357.13575 1552.63055 1712.73227 1661.31505 1771.31086 1832.54730 2119.94283 2193.31006 2281.49393 2325.72308 1977.82939 1987.25900 1919.91667 1807.70131 1767.04863 1588.53906 1314.45091 1461.13649 1513.95252 1502.90358 1462.84347 1380.09198 1391.67995 1591.33507 1566.87304 1362.62340 1815.02581 1997.98018 2169.09604 2038.85490 1878.60324 1890.11097 1716.00907 1632.67540 1540.46021 1814.01710 2012.55500 2069.09798 2209.79067 2226.78496 1885.21233 1935.77348 2263.17268 2483.01759 2343.53057 2259.87534 2177.42346 2313.74273 2476.41429 2398.69862 2173.09123 1833.52281 1774.13038 1858.97928 1843.57416 1702.63836 1852.97781 1975.49383 2203.62713 2301.71635 1964.24074 1721.10417 1372.58141 1381.94407 1114.60247 1184.31302 1257.87444 1232.23372 1366.46893 1532.94072 1368.35139 1476.41841 1218.44786 1535.66473 1724.46499 1921.27663 1911.56805 1764.70102 1500.36776 1529.17220 1579.39078 1412.40063 1189.56229 917.57092 821.41037 733.80884 643.04146 537.93704 463.06085 481.64794 700.98606 800.59748 707.07917 593.74406 557.61062 398.36319 420.47412 429.23163 337.67074 379.55842 473.61001 594.92059 621.80313 734.73957 833.81075 783.26039 694.09649 756.07374 843.07472 755.48281 642.85882 491.24858 432.85343 368.19860 348.76276 296.39469 230.80750 250.33916 237.69933 235.21477 294.97339 343.38918 300.10408 322.30002 392.60549
-54.63235 -53.98610 -39.54057 3.92126 17.69253 35.75613 44.52891 56.41272 35.64823 5.96789 -43.19095 -79.70444 -99.75646 -72.83898 -85.86576 -134.28024 -211.67854 -216.93266 -220.06482 -212.76158 -218.86564 -227.42184 -235.99345 -240.20042 -236.99111 -270.63495 -313.03006 -297.71455 -278.96708 -256.23366 -250.08611 -240.19955 -231.44822 -218.78465 -223.40409 -209.21456 -213.11530 -208.84928 -203.70221 -203.41243 -206.68407 -209.48074 -208.88062 -190.98738 -182.06367 -179.20094 -158.62822 -142.38823 -141.76272 -164.29367 -186.81592 -170.58969 -164.29166 -144.61866 -134.02632 -152.15903 -138.56902 -148.62680 -133.40350 -134.07690 -115.27484 -104.53380 -91.39352 -80.91038 -61.73675 -55.55492 -55.56354 -43.39861 -35.40303 -37.23963 -21.74620 -19.95148 -32.74160 -29.63214 -28.66299 -19.76603 -5.15139 -2.83764 8.23612 29.92687 32.96919 26.31691 27.39203 20.00097 26.49394 47.32553 62.96046 60.37051 64.50188 76.61561 105.75607 101.06852 90.30188 114.78801 143.66033 178.95315 180.66508 146.67968 153.38835 201.25089 220.39388 237.44357 245.39766 307.88276 337.12334 332.06552 333.87532 393.54495 421.16452 355.39827 270.79889 321.18585 356.55506 415.04308 451.10647 454.85070 465.28119 374.55967 370.42719 351.13060 419.51431 392.21315 414.52904 452.12344 444.51890 456.67410 547.31885 518.18186 495.80720 538.03830 630.31811 734.74424 741.41788 716.75670 949.69759 1017.82567 885.95440 886.68411 842.65845 906.14724 1033.95622 1144.62900 1185.19565 1151.90821 912.85529 992.11602 1144.96726 1394.06307 1434.30252 1194.28001 1041.79240 1198.49590 1127.52301 930.07598 834.94008 1023.26309 993.08374 1129.87238 1272.58574 1355.06280 1251.27119 1496.63958 1566.87448 1717.70886 1814.78329 1614.50068 1466.80341 1641.89385 1856.77000 1940.92631 1994.77589 2107.08134 2164.05555 2293.63354 2475.48624 2483.62825 2332.21453 2309.31588 2279.77819 2081.80121 1890.99613 1520.60402 1493.35810 1733.03748 1710.66432 1789.01398 1818.60649 1677.36516 1665.91403 1875.79650 1807.80910 1642.19792 1695.52364 2135.80476 2154.64361 2028.12044 1771.78718 1645.46371 1519.11641 1414.63742 1471.33945 1774.75263 1897.27343 1859.15157 1847.95943 1794.35463 1752.44287 2212.26879 2339.23778 2328.94903 2080.28266 2005.17026 2099.85628 2361.41464 2563.30607 2394.13964 2064.94959 1853.45566 1761.67920 1646.07151 1746.77064 1621.18605 1748.04456 2135.22554 2369.09272 2267.98439 1907.63822 1634.03090 1417.53228 1384.53920 1321.54556 1221.87893 1586.08795 1407.73076 1489.41794 1773.11743 1695.44424 1596.88409 1369.91488 1638.52696 1890.50969 1722.39473 1478.29884 1460.05744 1209.05769 1271.67884 1295.45322 1311.18605 1287.54807 1083.60608 884.17272 853.37403 885.58146 517.52841 569.79960 537.46097 747.64742 866.88859 859.65381 660.67156 525.00051 512.73558 503.22039 410.05442 328.56084 420.56883 508.56459 761.39120 842.11336 948.36295 963.89782 899.70763 809.12458 809.26291 858.34934 664.79524 534.19577 429.31575 358.23798 301.67190 280.31588 283.14667 274.42389 276.91186 228.59586 264.22585 324.38557 375.94492 357.09431 352.31431 429.55155
-57.00382 -57.34924 -20.58117 0.01173 22.29620 48.98076 47.99376 22.46747 -4.22048 -31.31340 -76.66446 -130.19515 -166.66335 -150.18552 -154.90703 -224.68455 -248.35457 -301.94836 -293.34825 -272.46950 -234.35279 -247.11116 -255.33118 -265.46724 -282.48099 -313.97608 -333.05494 -327.25236 -303.27737 -280.52335 -270.34066 -235.10346 -247.96115 -242.65403 -227.86390 -253.41303 -232.71468 -224.72031 -220.64430 -216.94640 -224.82166 -220.12276 -220.36789 -216.40253 -208.35207 -218.21922 -205.51333 -198.00957 -195.76124 -210.05825 -202.45558 -198.72568 -185.30747 -171.39181 -168.00922 -162.64436 -155.92608 -139.91420 -134.21830 -127.60608 -111.46332 -103.08814 -85.94201 -89.20076 -61.83072 -54.87653 -49.98639 -46.18365 -50.80259 -44.67911 -35.99499 -30.08342 -24.54899 -31.84609 -18.13350 -17.21928 -7.35216 -11.04539 0.77162 11.57452 9.07341 15.50626 34.81770 39.93001 37.79019 47.32645 48.35527 60.86304 62.34682 106.12764 115.77450 117.58176 112.73226 117.76957 128.37652 159.74424 176.32921 211.19947 163.16179 214.28794 262.04356 260.25651 234.38152 307.63353 425.79260 512.95455 497.19083 470.26830 449.41104 373.37692 305.59993 317.32735 345.20311 392.97053 540.89183 644.32126 516.97226 474.42675 467.21024 352.78848 432.87601 546.97251 463.57841 367.14896 458.49671 540.37666 624.31849 628.96157 578.81620 561.73264 686.75770 833.92987 899.33476 864.75230 1034.02169 1070.32180 899.99457 851.03365 970.98463 1015.07391 949.47835 1085.43461 1213.06740 1340.41314 1256.28441 1082.63271 1076.55248 1337.59288 1479.35952 1328.64277 1137.57030 1321.95453 1304.76286 1132.88294 784.23669 824.63344 972.19081 988.88338 988.55018 1118.92996 1151.93955 1327.50136 1405.97713 1791.56714 2011.88646 2030.61675 1966.15657 1863.44041 2029.90086 2219.27530 2185.00226 2215.88919 2283.83917 2350.68645 2518.03483 2440.93709 2172.57659 2163.53414 2276.91427 2297.79948 2033.13847 1815.25662 1743.06748 1837.56228 2066.82751 2019.14644 2026.43980 1996.06099 2082.33024 2206.58483 2128.23444 1977.07251 1970.27979 2036.64651 2003.19561 1812.77307 1812.19441 1734.40535 1692.56809 1604.97271 1407.21904 1564.52479 1731.77734 1640.55861 1523.08986 1556.88715 1923.68050 2173.07254 2263.72427 2210.24296 1908.00798 1785.72357 1908.35793 2129.36003 2282.65002 2211.66786 2225.79003 2054.39598 1912.59320 1790.82754 1567.69689 1594.99437 1906.44096 2138.17358 2231.73490 2229.97498 2017.92149 1876.53203 1664.73327 1725.19869 1746.90588 1315.66331 1571.56804 1640.03788 1485.82718 1958.70499 1887.85659 1685.09119 1632.83252 1921.18839 1966.50375 1689.35156 1393.69193 1181.40635 1044.35864 980.30127 966.19356 968.28814 1162.09523 1025.76170 1002.34859 980.76824 630.46148 590.46818 770.99790 664.08191 718.79059 1008.71895 970.07987 828.10857 644.55008 567.99632 533.74519 422.37949 300.49307 337.38101 540.72916 757.49142 837.41222 996.91370 1085.56276 1056.41209 916.77177 892.88862 829.73939 655.57617 574.15818 541.33859 422.84494 413.47257 349.02937 319.08380 316.43573 268.34939 232.52935 249.43517 323.69648 371.40320 406.37782 453.22634 525.68400
