-297.77583 -296.33956 -295.08932 -296.26773 -294.26010 -299.99405 -297.55054 -293.68215 -290.75176 -284.21981 -287.49906 -280.38642 -291.15726 -290.03646 -293.06790 -288.23918 -287.69494 -280.92643 -278.96046 -287.11758 -284.44591 -281.93325 -287.83149 -273.05519 -277.91922 -269.49108 -257.19790 -252.71460 -244.94591 -219.85568 -170.02787 -111.62687 -52.89076 112.40813 269.87180 523.31874 693.40918 759.57320 775.38970 771.21696 769.56613 782.40295 799.95311 908.86970 1064.08221 1234.10005 1343.95058 1335.84001 1261.12843 1158.66917 885.95235 747.59946 694.41931 666.05203 621.95403 520.99757 430.55090 362.24466 308.81316 282.91870 281.64741 257.83125 262.41503 277.26697 278.60274 253.49961 245.31395 232.80725 228.96941 247.46943 242.74739 259.33990 305.90965 335.24440 383.23642 486.50134 609.42571 700.32223 660.45508 549.67551 459.69626 440.80906 423.47833 383.84549 348.12694 338.99268 314.65191 322.61633 321.70546 346.58971 370.16525 395.72297 410.14676 404.29700 348.15139 309.86643 244.11000 223.61521 234.90430 249.26439 320.05238 470.78103 594.66099 582.68518 571.92051 424.42252 149.30102 54.32766 -24.44970 -88.09871 -129.89240 -159.33897 -201.54323 -207.46111 -260.55342 -496.28128 -1532.82297 -2558.19483 -3659.95440 -3931.18662 -4006.04919 -4005.24963 -4016.38378 -4006.16538 -4013.59566 -4018.21941 -4016.31809 -4007.82083 -4013.38497 -4004.72460 -4006.04773 -4008.70745 -4010.53107 -4003.64813 -4006.27497 -4012.74995 -4005.68590 -4007.27749 -4005.05409 -3997.61055 -3992.65538 -3989.91934 -4001.64348
-297.93014 -300.97857 -298.39237 -295.68264 -292.51173 -295.20039 -295.61929 -284.01011 -292.07001 -284.41900 -296.52592 -290.90557 -287.67990 -284.80832 -289.24520 -287.84585 -283.47022 -285.57671 -278.74470 -281.62939 -279.93574 -282.74776 -275.39382 -278.27145 -273.33253 -276.41337 -264.97403 -259.66456 -241.03158 -211.27439 -158.40485 -82.91802 -25.72531 92.68814 318.36771 550.60471 668.59616 756.09577 771.22309 770.02357 779.23103 791.21507 818.50935 920.00130 1112.71157 1319.07759 1403.36384 1426.25584 1347.08956 1232.38358 1077.21959 827.46589 719.18476 687.19766 643.74341 561.81089 486.32974 442.74552 382.88311 352.23114 364.79754 343.27273 327.72628 343.80002 345.64686 317.38113 300.83941 302.33515 299.67458 301.92632 318.08417 298.52193 321.38481 353.10825 368.59968 514.83980 598.08085 733.82683 716.50618 541.96562 467.05361 436.48216 413.74473 380.73419 369.99291 332.62457 318.14775 324.28870 328.86746 338.50197 375.05896 406.35712 417.06393 387.31221 314.10604 251.87076 214.05996 200.99733 216.18078 225.83489 272.95118 396.71514 562.38771 628.13888 597.01530 426.39405 358.37525 199.02002 9.60521 -70.64630 -108.45181 -120.16113 -163.24817 -201.12594 -254.72912 -423.88408 -1291.22858 -2653.72830 -3569.21306 -3914.32156 -3997.65961 -4010.28204 -4019.16961 -4011.51468 -4016.27966 -4006.65224 -4014.26844 -4015.95907 -4008.93785 -4014.39048 -4013.25985 -4009.47482 -4012.51072 -4007.92810 -4010.69599 -4007.06643 -4001.85347 -4007.85240 -3999.80529 -4004.45775 -3991.18187 -3993.74228 -3992.77800
-304.13560 -302.31913 -294.36849 -300.08429 -303.70593 -299.22576 -290.58321 -289.62227 -292.03131 -297.96391 -287.14414 -291.19094 -290.67810 -283.20688 -286.00635 -284.18378 -279.84519 -288.83377 -281.15555 -283.73224 -283.13267 -280.44026 -285.52595 -270.60690 -273.41883 -281.27620 -264.71396 -249.56130 -247.82290 -185.99174 -128.23574 -54.29632 38.37445 91.99015 251.31931 462.25572 732.53468 775.45008 765.47009 779.08587 786.11624 813.78577 837.24967 965.62524 1136.54898 1376.08532 1465.33505 1476.09474 1430.45582 1334.36677 1166.66018 964.46337 774.77563 695.62543 662.15412 608.56879 564.47879 514.97596 430.12635 408.21480 399.73107 400.21212 397.54843 392.96010 379.22088 388.20362 378.73875 381.75634 384.03628 377.15691 371.13110 363.10092 347.16438 370.52398 408.92017 508.05723 595.98906 727.80751 680.93991 564.13436 477.84172 434.76402 407.72292 399.35747 374.16065 330.93669 326.36804 323.21649 327.94181 352.73748 382.89373 398.92516 410.63718 370.50629 246.81122 217.98483 194.17694 192.19759 206.09426 208.41514 258.73030 340.82037 539.04344 641.18673 615.39437 536.79101 405.34187 192.93095 128.89483 33.79384 -83.24229 -127.50886 -145.56576 -189.16436 -230.38246 -437.13375 -1444.05338 -2377.87193 -3539.90960 -3890.76528 -4004.45906 -4012.29337 -4011.67577 -4023.17036 -4014.45398 -4018.46234 -4020.80904 -4017.22322 -4019.24453 -4020.41318 -4021.57414 -4009.03075 -4011.11271 -4016.02575 -4016.06884 -4013.47297 -4012.82672 -4006.61765 -3999.99067 -3997.26691 -3996.68875 -3994.38046 -3989.81806
-304.94339 -301.65837 -299.81923 -290.82747 -296.99888 -294.18412 -293.43590 -295.12232 -286.28511 -292.77585 -289.70203 -297.47601 -289.73632 -287.58335 -286.03745 -284.03537 -286.18750 -286.32919 -284.13339 -276.79889 -277.72926 -274.20889 -278.68702 -273.77462 -271.25411 -277.86510 -261.93355 -260.38497 -165.84566 -84.82585 -58.97758 4.22158 154.09085 260.78733 427.95526 586.73018 748.07410 767.76083 771.23656 790.61583 801.20578 822.26538 847.01214 966.21536 1176.07759 1373.88978 1476.69942 1478.11024 1457.47328 1412.39708 1189.90659 1021.17224 801.67145 703.08328 692.28114 654.46653 632.53116 555.51429 546.87467 559.80541 515.72602 464.38438 422.01043 424.85172 406.33307 402.53402 389.54450 391.74934 387.54938 369.24753 355.90030 346.35230 316.53138 359.87788 375.14467 502.73594 586.87129 714.77853 714.63185 567.98909 459.37010 390.04441 399.35679 397.47713 375.22981 331.91095 321.22089 329.76324 326.21268 354.51696 390.63408 400.40000 392.00116 341.84498 213.27604 174.35444 167.77957 183.70085 168.16676 188.57969 268.25456 344.50890 528.99634 648.04634 595.21187 480.36165 377.37082 267.48597 160.81441 81.22484 -14.03722 -107.78048 -125.90638 -176.86277 -239.64246 -403.22151 -1396.98230 -2381.04623 -3489.88963 -3878.69136 -4008.47686 -4016.98840 -4016.96809 -4008.01415 -4014.63511 -4016.82751 -4016.48133 -4017.02904 -4015.00406 -4015.18751 -4018.47969 -4017.03191 -4019.27273 -4016.05802 -4019.17271 -4018.24177 -4017.97061 -4009.76698 -4001.79045 -4003.47612 -3996.96587 -3999.72007 -3994.40689
-298.28193 -291.61956 -297.38026 -298.48658 -297.20217 -296.39842 -291.85764 -301.85090 -287.61994 -290.60405 -289.31677 -290.54184 -288.69817 -282.93764 -288.09354 -280.72538 -286.97978 -284.28794 -272.78729 -281.98453 -286.82969 -286.75432 -274.44315 -269.08911 -271.78657 -260.02870 -250.33372 -194.81153 -141.36178 -83.24412 -38.67626 61.51602 223.75860 343.67461 533.40148 655.81712 756.29382 741.21001 790.49327 799.36748 810.44925 880.65293 945.34235 1041.95640 1270.13091 1394.35018 1461.75191 1482.54817 1479.52232 1441.61276 1344.68721 1059.36927 860.73096 728.10067 699.91966 684.89073 646.24244 616.38390 641.75223 608.13440 563.57084 537.32651 477.52105 467.18423 433.32798 411.22558 390.05153 380.76113 358.90625 319.64690 303.33898 218.48926 266.83446 268.08380 337.76430 440.89316 564.17816 714.39476 679.93270 595.82630 400.77949 339.22219 345.00190 366.52700 355.88132 348.95219 326.26314 322.87476 321.98991 341.18999 368.08335 388.54144 385.06067 323.94701 227.86842 148.28698 124.91738 118.58021 113.92630 158.96312 275.94351 394.66275 565.44721 626.46749 544.46028 412.29026 282.69061 218.18987 187.56752 97.84375 13.32219 -51.58274 -113.76646 -163.50846 -262.36331 -422.48325 -1348.90099 -2545.28294 -3539.95947 -3863.88670 -4004.98563 -4018.38838 -4007.68795 -4016.47637 -4018.79919 -4012.86589 -4027.18071 -4024.65930 -4019.44985 -4018.96038 -4015.71356 -4016.34597 -4010.18845 -4017.11321 -4017.00598 -4021.15063 -4012.14489 -4007.75316 -4008.61172 -3995.60292 -4003.68461 -3991.87735 -3990.25793
-294.82230 -300.51550 -296.52743 -289.26144 -300.30751 -292.14825 -297.94770 -291.28890 -299.56013 -299.68683 -284.99774 -290.46237 -284.24750 -284.39049 -291.95864 -280.31732 -287.58246 -286.23753 -282.24437 -281.47203 -281.41701 -282.11034 -260.45891 -252.50731 -230.93445 -211.24579 -174.07385 -125.67128 -107.48228 -54.34788 -26.21507 78.54683 289.97698 462.07304 628.43618 701.55087 763.91918 774.22061 788.00520 799.78579 893.84211 1029.88309 1059.89548 1120.24001 1251.40804 1336.55512 1449.65633 1480.09848 1473.32236 1455.09214 1395.89532 1141.03291 933.06253 742.79250 700.46320 691.18536 663.46311 672.34574 680.21884 651.56868 621.20508 612.35975 557.82539 528.38954 479.99073 412.66111 380.27189 308.13984 272.34855 223.27915 194.25956 162.54482 169.46275 188.26249 213.87791 330.65761 483.83050 642.89065 687.22845 560.47478 409.61280 281.92070 262.34865 329.25727 330.66168 316.89479 329.00868 326.27490 320.66213 330.65387 345.47359 377.12412 355.18205 318.50586 203.25841 144.57634 120.32484 112.27636 92.88458 138.84491 236.63545 373.87150 574.41747 623.09310 491.40163 319.91061 259.75792 213.11846 194.65964 155.04161 74.04374 -11.83845 -95.63528 -141.84248 -211.62259 -363.69738 -1017.23424 -2249.49707 -3076.92373 -3874.15569 -4013.74022 -4018.75928 -4017.16253 -4024.36374 -4013.55603 -4019.33792 -4019.31390 -4013.40865 -4014.48008 -4024.18106 -4028.86729 -4016.91042 -4017.62810 -4014.75115 -4022.82399 -4019.21494 -4014.48442 -4011.56177 -4004.81375 -3998.32941 -3999.61307 -3991.95380 -3991.67943
-306.90573 -297.70636 -302.11503 -298.30113 -298.67326 -293.00168 -287.21385 -296.37719 -285.81019 -291.38860 -294.28749 -283.57733 -292.16372 -285.59059 -287.87548 -292.98109 -284.15319 -277.13864 -273.00821 -284.95976 -276.01918 -265.15005 -243.55708 -205.74658 -171.57831 -145.41370 -123.83441 -82.16728 -50.70629 24.78420 86.29550 122.66466 292.83089 532.06024 641.86039 753.11298 769.84936 788.94583 788.46295 835.28844 899.76692 1143.24526 1212.14373 1189.14023 1198.38568 1303.91843 1398.66787 1472.68835 1478.93376 1481.54814 1373.59921 1134.09593 892.38846 721.45961 705.66503 702.16901 683.47594 679.11926 679.60482 687.72004 676.03785 657.58328 650.06028 613.54157 508.42863 402.53547 312.72993 240.42448 176.71063 143.12485 101.61105 84.42717 99.96886 98.42025 151.18456 234.50103 352.75210 523.84314 589.61782 517.79248 270.32047 213.12480 178.32964 234.39526 233.24015 314.82737 317.08467 304.64572 292.02441 320.24575 324.13307 346.04833 331.53505 268.06314 192.55671 152.00597 112.14776 91.19868 96.14346 136.69777 208.69807 338.88202 512.26534 571.56922 437.00479 283.44640 210.73729 210.69415 202.90631 146.15514 118.76490 30.17369 -88.77995 -144.21865 -215.68570 -467.30201 -822.91367 -2162.40827 -3209.55018 -3908.06897 -3998.45578 -4011.77749 -4019.65126 -4018.93428 -4019.10972 -4015.91977 -4019.44572 -4021.45689 -4038.33980 -4018.24866 -4022.50560 -4019.88038 -4027.25269 -4019.04198 -4016.69335 -4017.47226 -4015.68885 -4015.02457 -4002.17437 -4004.92339 -4001.42031 -3988.60480 -3993.87960
-300.13422 -301.70147 -302.46174 -294.27395 -298.76609 -298.52448 -295.65238 -294.46159 -291.58822 -288.93360 -296.19575 -286.04075 -291.76153 -286.69369 -287.14036 -294.75796 -291.51449 -287.17216 -284.16867 -266.19788 -259.38328 -231.35852 -211.66781 -155.40828 -71.34860 -60.65172 -30.95757 9.47829 99.45810 178.71999 318.51121 258.82506 449.68256 678.26233 703.63382 751.85997 784.75432 795.45843 803.79538 858.67303 1000.03098 1165.27311 1267.69650 1256.64793 1200.92652 1261.93487 1361.53916 1457.92137 1464.81935 1472.08206 1372.72349 1129.32779 911.62415 741.90799 697.83443 687.35828 680.77478 688.43606 686.95911 692.33057 679.95709 688.41273 674.81798 642.75455 529.12412 344.75837 240.77053 155.67461 109.88157 75.28444 79.47390 69.27001 81.27767 79.28106 93.91469 122.11101 235.20868 369.98959 398.46080 293.42464 256.22718 132.21688 102.10823 135.88122 185.16978 278.70125 264.78885 266.16467 287.69644 314.16567 315.14090 326.61498 321.01808 259.15325 194.96062 163.19362 142.18991 77.62951 70.39088 94.59263 144.88573 246.34610 415.57675 457.61406 423.89830 249.82351 187.16327 185.15043 165.30249 145.43181 126.12493 20.53913 -70.79006 -169.86069 -213.63716 -294.61395 -851.17138 -1905.07808 -2914.54741 -3892.90519 -3983.49034 -4007.85138 -4019.98396 -4022.76243 -4011.21027 -4023.17523 -4025.70340 -4025.09710 -4013.84488 -4018.78731 -4023.81455 -4015.78838 -4021.34835 -4026.32692 -4024.11695 -4015.37643 -4015.24854 -4009.88050 -4010.43230 -3998.44279 -4004.84319 -3985.62713 -3986.61350
-301.28441 -297.37008 -298.41541 -306.74189 -295.11192 -294.25103 -290.03250 -298.00838 -292.91207 -288.65655 -293.91320 -290.28853 -283.80645 -287.58302 -285.59382 -292.87924 -289.49990 -286.33509 -279.31092 -246.74372 -217.70834 -145.03246 -39.14185 6.41203 -11.36937 10.26172 100.03958 208.34150 281.48336 443.39654 484.94351 535.37262 606.52378 721.73524 752.05518 772.07846 806.05749 802.00474 819.13082 920.77126 1069.22557 1251.50743 1323.88955 1283.99154 1197.00582 1202.02954 1305.98878 1378.14037 1430.25076 1383.62215 1286.88228 1013.32139 861.32094 709.49144 702.19034 686.94708 684.10871 682.19743 676.48847 687.66724 689.66026 689.29381 669.42365 638.17218 538.59744 315.51514 173.25205 113.12827 82.09428 54.54471 60.87306 42.92540 48.03261 55.15032 54.77725 78.34867 105.17182 182.02306 232.27502 193.54188 165.99212 72.40022 90.76912 113.17493 159.93633 234.29231 208.57060 297.51623 318.36017 320.66252 317.02590 331.67110 308.13187 281.47599 207.27970 178.83652 133.27409 76.58616 59.95666 93.54948 118.11648 178.14237 234.95179 361.98681 331.90444 204.93624 152.59911 144.44821 144.96074 130.28796 93.17431 2.46309 -94.94998 -150.30511 -212.46441 -280.07161 -728.23603 -1758.50422 -2997.41245 -3717.70543 -3956.42861 -4017.65579 -4023.88659 -4019.88192 -4018.95808 -4018.75368 -4025.86420 -4028.45859 -4005.81817 -4026.69761 -4020.34670 -4025.55380 -4024.99461 -4027.51479 -4025.01003 -4018.84918 -4010.66649 -4005.86987 -4003.27838 -4003.86565 -3995.74740 -3989.53973 -3986.00685
-303.61395 -299.92442 -303.30939 -299.10173 -296.76381 -301.31966 -293.48939 -301.46703 -295.01799 -296.13047 -293.62655 -285.66237 -291.25212 -287.99540 -286.37994 -287.30808 -283.33126 -277.61396 -277.95305 -213.29577 -125.24819 6.29826 127.21986 204.03387 129.35708 140.16897 211.16599 345.62917 481.69845 612.75349 656.14471 723.83259 668.62367 748.50899 770.53739 792.46248 802.90043 826.98536 871.66328 997.57154 1152.93112 1269.01089 1334.59665 1297.51807 1196.13364 1184.96610 1220.11635 1280.61271 1242.35008 1207.22135 1178.54204 925.70738 781.91527 703.40237 693.45314 672.18406 674.01117 676.53828 675.87768 681.63974 685.35812 685.46510 676.90241 596.33490 502.68162 285.66009 108.32596 100.13087 77.19729 55.31074 55.04072 45.32642 42.77819 45.51432 48.46382 53.15715 51.90968 77.67622 92.98720 84.29382 72.22947 53.35632 77.31454 82.97036 115.33316 125.86679 193.83444 277.03387 308.42658 315.41297 289.76603 314.19625 315.19532 285.74767 245.03243 175.69245 107.31274 70.32240 60.51034 65.27501 85.62255 99.71484 140.33457 208.14001 239.74711 168.04254 106.74370 93.82631 104.35667 106.12659 104.11711 -6.48927 -93.65162 -154.64841 -206.31461 -283.20428 -630.13916 -1665.91980 -2702.26699 -3552.87561 -3953.22585 -4009.94393 -4022.04269 -4018.34271 -4020.19745 -4026.68155 -4027.28661 -4022.01017 -4025.87700 -4023.83333 -4022.98486 -4026.42190 -4028.82732 -4015.47042 -4021.27981 -4018.67307 -4009.72670 -4007.92517 -4003.00143 -3998.21314 -4004.26312 -3989.81234 -3993.74566
-302.00856 -301.27106 -308.62635 -299.03530 -298.80948 -298.13269 -300.22019 -294.88446 -298.00687 -289.36057 -295.64025 -290.60798 -291.68794 -297.66958 -288.11091 -290.15216 -288.99275 -268.33107 -228.38413 -153.12962 -25.94559 123.62432 290.92722 332.12913 227.11233 253.02040 329.39962 548.42517 559.67888 722.95872 735.51633 753.31258 737.47309 766.54591 787.89821 803.30737 804.41171 851.52597 966.61713 1044.91266 1181.61874 1258.57268 1285.89072 1269.53898 1189.33256 1143.59072 1117.33386 1123.72174 1047.67980 1034.63197 970.31635 843.77249 721.68906 684.30391 673.71365 673.75738 666.67565 688.86359 684.98417 684.05146 688.44779 692.01355 694.29584 621.29592 389.05691 215.37955 113.08843 76.33452 44.48947 46.75206 45.39592 40.87860 42.46206 41.27714 43.32510 42.69234 50.08505 56.97452 53.22180 51.73074 42.50006 40.82530 48.70365 52.23068 65.34545 109.42827 205.24212 250.73157 283.32649 273.76784 254.31300 284.86050 295.05895 264.57259 234.18519 177.67555 99.58028 69.39319 62.25705 57.57580 80.05375 95.16654 98.70488 133.88133 155.43832 122.61000 100.18884 97.32216 97.56829 107.64419 93.80124 18.90321 -88.40127 -151.06223 -205.98043 -287.86767 -579.81122 -1131.93945 -2464.74559 -3462.58384 -3904.22941 -4010.70646 -4019.65171 -4017.29127 -4024.08732 -4016.87829 -4024.27472 -4026.13030 -4025.36616 -4025.88610 -4022.01898 -4024.06574 -4025.12898 -4020.89021 -4022.43638 -4011.18176 -4014.64217 -4016.17618 -4009.53594 -3998.69355 -3996.94440 -3997.71774 -3992.21597
-305.73076 -304.26280 -304.34937 -297.12876 -296.47898 -296.78036 -304.90767 -287.07811 -300.37496 -298.07785 -289.65456 -293.03000 -285.89208 -297.74057 -289.87574 -295.80638 -296.43491 -272.64509 -188.23624 -55.63307 77.05592 475.05707 462.07687 400.43061 368.50104 408.79764 452.38380 599.98085 720.43278 744.29630 757.49237 766.45341 767.00792 791.85296 808.00722 816.90870 856.20959 964.44709 1054.24989 1122.00090 1181.64052 1212.84120 1238.13320 1216.22129 1181.51317 1123.08509 1071.72199 1023.13305 889.18564 859.34316 805.97538 753.95705 699.81473 675.86324 680.86019 662.98912 671.78818 691.41742 705.80590 710.14508 716.44624 724.98356 704.38998 645.82647 341.77484 237.84548 125.84574 68.92297 50.93983 45.34967 46.11591 39.34311 47.39590 47.34937 44.66920 45.05070 47.44966 48.66474 52.69789 52.98941 45.73568 44.98175 43.65028 46.84420 50.80561 89.97360 108.59478 154.60709 233.23556 246.16141 215.38853 225.49913 223.76452 200.29680 204.17725 156.23360 79.14998 59.35407 49.97889 52.37271 48.81912 63.01973 85.57362 81.25661 96.75398 104.44178 104.81171 98.86474 112.42859 128.34851 86.70736 -16.59189 -98.78498 -137.45863 -208.15741 -258.79288 -341.24690 -1138.42100 -1957.76656 -3397.60759 -3776.41482 -4000.86041 -4016.79746 -4023.16989 -4011.92181 -4013.64148 -4018.98864 -4021.84549 -4020.92475 -4021.88219 -4022.17551 -4012.87675 -4016.93116 -4018.90036 -4016.96073 -4014.12120 -4009.24631 -4000.30378 -3996.23487 -4006.62008 -4005.36812 -3999.58022 -3994.01832
-300.74852 -302.86887 -304.87235 -300.13281 -298.26488 -301.04911 -300.38220 -301.97331 -293.81512 -297.05332 -291.56155 -301.51262 -299.67298 -325.25249 -328.90681 -313.06120 -302.67334 -268.61260 -153.39664 77.82641 430.62445 602.80683 588.43888 550.28608 505.71058 548.56801 601.07879 696.12691 744.48171 760.90447 763.30202 759.80842 789.03329 798.25264 816.41591 841.79045 920.67347 1061.26540 1106.89059 1160.15799 1173.03842 1184.15302 1187.13822 1188.45364 1177.11518 1131.71654 1053.65881 925.25330 788.30165 742.84813 738.09084 720.16534 690.78670 680.27345 679.17173 697.66169 701.00823 715.79306 715.10368 735.70820 786.11352 796.50677 816.70191 756.39113 458.42647 318.62996 221.20263 113.16533 62.24428 55.08188 45.94805 47.69280 46.53841 42.70768 42.71091 40.63862 46.04383 45.12104 44.20997 45.31956 42.92235 37.74547 49.49171 41.59477 55.21620 60.47827 72.32010 86.31157 125.44727 181.93574 181.46127 154.72495 142.61967 114.35976 103.87941 78.06363 57.41149 61.23029 54.69548 58.18032 48.41578 59.51491 74.55688 74.07810 90.21088 101.35406 112.04457 108.40602 124.63737 119.73570 85.57362 -34.08405 -107.74359 -149.04023 -205.76069 -241.87560 -451.55642 -986.36490 -1748.40896 -3093.79462 -3785.65542 -4002.90701 -4007.98177 -4018.08350 -4018.89885 -4015.42477 -4016.77393 -4015.47414 -4023.08035 -4014.05280 -4021.93458 -4016.82159 -4018.12677 -4006.94387 -4024.33789 -4013.58245 -4010.18502 -4009.25091 -4005.97979 -3998.84562 -4003.43979 -3994.43214 -3992.68626
-299.05028 -298.92219 -305.20401 -300.35982 -303.99974 -297.01617 -309.19887 -302.64261 -302.83869 -314.55120 -321.32122 -356.32029 -424.82805 -376.58256 -440.40693 -323.49665 -368.99226 -277.57499 -49.11944 177.60448 574.90135 659.31886 694.58654 677.72072 650.31799 651.96402 695.92794 732.89003 755.98816 749.43118 755.71590 763.85427 801.02662 801.83898 867.99563 975.61646 1047.41114 1097.74968 1143.46729 1171.59894 1169.00080 1174.08262 1166.62603 1176.53374 1167.17121 1144.01789 1080.47012 891.44474 795.53651 722.42199 721.75997 723.39926 689.01340 669.56653 686.46674 708.58306 713.84269 726.82361 770.02675 854.68170 874.07972 989.08159 946.48643 855.24050 719.68003 572.46272 392.86635 237.13048 107.54719 66.33421 51.00864 47.95251 55.10884 40.69777 50.64803 38.11017 45.59836 44.64741 41.08829 42.50316 42.16413 38.80233 41.07379 45.65848 46.88595 49.67891 61.20647 56.39585 86.51277 110.96285 122.68977 93.48497 89.38385 75.32069 67.38512 59.23913 53.42930 46.46745 52.68853 49.80647 50.80103 55.66638 66.49650 84.23525 108.89442 106.08037 107.39498 99.79559 119.43723 136.19606 59.81687 7.39992 -98.60163 -181.49722 -195.41611 -231.24052 -320.64134 -711.52168 -1674.15173 -3044.69142 -3737.66808 -3954.60154 -4013.50796 -4015.72774 -4016.76190 -4014.21841 -4014.52714 -4018.73024 -4022.20254 -4018.15124 -4016.83828 -4019.76138 -4017.65507 -4012.65514 -4009.19241 -4003.49567 -4018.33153 -4009.60208 -4003.68981 -4001.58852 -4000.17380 -4000.52540 -4004.65889
-303.48893 -307.01053 -302.51309 -304.22874 -305.45274 -303.41417 -304.55713 -311.00714 -352.26394 -391.11151 -419.59281 -460.78227 -676.58353 -774.97170 -670.66079 -575.61907 -704.31024 -529.04343 -123.72199 223.54551 568.36020 718.93278 734.63319 713.92671 729.68545 740.84991 753.54654 760.11692 759.65760 755.55914 761.82101 778.48161 785.91399 844.85529 989.34663 1012.39481 1106.07574 1148.71281 1170.14900 1162.47359 1164.68309 1162.42524 1163.37507 1177.44373 1172.70896 1134.70210 1038.59265 867.61421 762.73758 719.96958 718.30063 690.48464 671.91580 690.93084 727.79198 757.76814 748.20781 804.79045 901.02960 963.65858 1039.17774 1084.23502 1100.65117 1098.15408 948.62884 835.56754 736.17890 459.93720 220.09228 92.05940 51.25354 41.17053 43.87940 42.12474 38.44499 43.10649 41.16766 41.81516 46.29586 43.40161 36.91139 37.77155 44.46963 44.94087 41.57885 39.13029 38.02059 53.49177 43.19078 51.22747 69.80349 68.91536 63.60575 57.11427 56.89563 53.99054 56.24337 50.23047 54.21538 55.39904 65.22916 61.99189 64.85801 99.55340 104.36234 101.67801 108.06076 114.99489 113.69478 121.78269 92.44934 -2.45558 -121.88375 -176.68699 -212.87014 -241.03072 -281.14604 -709.60906 -1621.63452 -2773.02627 -3724.35120 -3966.77799 -4016.10814 -4014.72383 -4023.31458 -4011.99937 -4016.26259 -4012.90183 -4018.24305 -4016.23610 -4018.43911 -4015.07972 -4010.72865 -4014.70830 -4006.46206 -4006.16937 -4015.47232 -4003.76363 -4007.99483 -4000.22451 -3999.54651 -3999.47910 -4006.60780
-307.49029 -309.80321 -320.31503 -321.16510 -330.07404 -343.41202 -401.68832 -389.09878 -512.06678 -652.36767 -861.68187 -909.65708 -1470.24551 -1904.99477 -1493.35668 -1503.53569 -1423.91292 -897.20296 -290.94779 49.61302 454.81352 640.73943 744.96082 735.90563 746.78637 756.54362 762.24596 765.45841 762.36441 757.43160 764.25585 783.68650 806.46644 931.37990 1022.01601 1109.20328 1131.53887 1158.89926 1168.97732 1154.41287 1166.87768 1168.67457 1163.04134 1169.33498 1167.89353 1123.55791 1044.17982 859.37110 766.08299 712.92391 696.73819 666.88707 680.15047 706.58530 775.20493 827.51858 897.91372 962.66512 1001.87963 1066.25731 1112.28950 1153.67381 1168.81201 1156.30748 1097.32735 1031.00087 935.77668 524.84967 276.08679 149.73281 53.35045 46.76369 43.81938 47.50401 40.18398 41.54684 38.72825 37.11808 40.34283 36.84461 43.27517 43.68679 44.34042 40.03552 41.32878 40.53748 40.11756 52.07260 44.47841 48.06057 47.56884 49.14149 46.76627 44.95034 44.71424 50.50049 52.78635 57.35453 60.87269 73.80671 78.39171 71.34505 86.90185 109.17709 107.57764 111.52079 105.46056 100.56548 118.53369 100.43107 50.20378 -33.35741 -133.63045 -171.37424 -214.84580 -226.45497 -257.10962 -1103.99969 -1826.84409 -2625.17827 -3648.90880 -3971.09677 -4010.05668 -4011.49087 -4006.26062 -4019.72307 -4019.68390 -4011.17630 -4013.56219 -4013.65683 -4017.72872 -4015.68531 -4014.35173 -4011.10447 -4011.03306 -4004.21270 -4009.80044 -4012.00060 -4009.44547 -4001.91871 -4009.29836 -4009.29585 -4005.80768
-382.45917 -372.65850 -421.70469 -441.23568 -474.04182 -547.39765 -651.82448 -732.57521 -792.83747 -1318.06238 -1735.33376 -1917.39811 -2308.95093 -2743.27736 -2771.52022 -2912.61832 -2588.68321 -1873.61591 -844.48152 -131.53180 207.35151 452.87080 666.04091 704.61164 727.16787 743.62729 764.38891 762.78142 751.30241 764.62007 781.87379 798.50504 858.26025 942.63363 1059.06369 1140.97369 1164.45999 1164.94776 1166.18976 1159.74659 1164.74263 1170.83785 1170.65778 1177.38704 1167.46605 1114.92202 1038.13216 862.28166 759.05980 718.31787 690.99299 668.97847 692.19418 752.36101 895.01217 967.63200 1030.31046 1071.12289 1129.64063 1149.95292 1170.54529 1175.61976 1191.11172 1184.55408 1176.56863 1147.14468 1075.17606 712.29809 318.10555 141.15103 63.50175 46.23214 42.98322 46.89192 41.99003 44.19719 42.14529 45.15222 47.89617 33.73103 36.76859 31.44148 41.65372 35.59111 39.25327 41.70635 36.25795 45.02087 44.18376 31.48164 44.21591 42.45678 41.99958 48.02430 48.31043 53.37416 58.43792 64.44698 78.35317 90.36467 102.00953 100.21349 111.87932 106.76047 112.31493 117.05518 102.75073 111.08400 116.74689 117.60098 58.57068 -20.22319 -126.58289 -173.95165 -220.30322 -229.67548 -404.92451 -896.97481 -2018.30930 -3144.47829 -3855.21110 -3966.16914 -4004.09224 -4011.40832 -4017.19073 -4017.29685 -4013.83635 -4010.26427 -4014.48324 -4012.47796 -4014.07205 -4017.97656 -4011.99155 -4014.40164 -4005.95437 -4009.74839 -4010.47434 -4004.89242 -4005.43360 -4011.72150 -4012.49924 -4008.18476 -4009.82665
-685.95128 -697.90260 -771.36173 -979.21570 -1048.86972 -1065.50546 -1272.29340 -1617.89368 -1816.50222 -2166.91511 -2704.99394 -3197.93427 -3312.30007 -3429.51339 -3673.81945 -3658.45541 -3197.46110 -2748.29330 -1700.09327 -791.87429 -133.47382 289.76896 414.90111 514.29350 626.86450 695.80285 746.36204 744.69966 750.31742 771.73787 793.59050 795.89088 872.36302 960.77999 1069.98906 1129.23144 1162.09407 1165.31705 1164.68114 1159.11065 1159.36019 1162.50720 1170.83706 1173.77744 1158.81058 1130.75127 975.85439 856.04574 723.78077 670.98497 618.12065 644.15162 706.13993 800.44516 918.29565 1050.70668 1123.07462 1141.31912 1161.34493 1169.66843 1179.78028 1189.11025 1173.66485 1187.03975 1188.55411 1169.83369 1041.57168 859.65317 375.39333 153.37443 84.83641 52.31839 44.89276 49.62838 45.40645 43.65845 43.32893 48.86279 43.69018 37.43695 38.27321 39.64835 44.23261 43.71684 37.59311 41.12439 36.79683 38.92729 45.38640 42.32495 39.70930 46.50407 49.65001 49.11365 50.60590 73.11496 81.25844 92.00416 99.45911 100.78559 106.63944 107.13394 121.88694 127.05091 113.45942 111.38261 103.74346 118.26567 115.22912 108.50115 39.08711 -17.55198 -115.51765 -179.73949 -214.03999 -267.04737 -514.70163 -1221.24378 -2436.33821 -3410.18689 -3836.02607 -3986.90180 -4010.93558 -4014.43373 -4009.70051 -4013.52312 -4013.54622 -4006.91669 -4010.42714 -4020.73321 -4015.80488 -4011.81922 -4012.58686 -4006.94478 -4007.36844 -4010.77135 -4008.29684 -4005.31142 -4011.48929 -4010.22943 -4006.05431 -4019.54513 -4020.17892
-1495.00569 -1490.67463 -1699.19201 -1690.52293 -1780.17955 -2077.09671 -2284.22831 -2597.48785 -3008.77749 -3380.32415 -3348.35861 -3718.14629 -3828.81379 -3919.73712 -4031.42078 -4027.40977 -3796.33124 -3385.49330 -2700.27314 -1464.09598 -577.69557 -61.57901 104.31040 343.92408 493.90878 611.53423 718.67164 700.65990 726.16003 767.20809 793.07236 790.32326 954.52506 1029.29148 1112.94723 1142.43159 1164.94705 1161.98410 1171.25096 1166.24659 1165.76226 1155.34400 1169.64807 1167.17866 1145.38109 1085.23433 925.23841 764.19407 656.08626 631.38043 560.35636 617.26187 639.00848 743.90614 877.76321 1044.78176 1115.50225 1167.28877 1168.93473 1176.36237 1180.64758 1179.22134 1183.41059 1182.84408 1180.44262 1159.43036 1069.26263 814.93122 653.83489 320.43066 185.99916 107.60763 84.07881 88.35186 62.05912 40.94255 47.34954 50.11427 36.19324 37.62117 42.82798 43.93040 31.78705 41.53216 36.02846 31.60410 46.44934 38.99294 34.86291 39.70080 41.84500 45.60475 44.71704 47.66384 63.40032 80.10787 93.01339 115.09330 114.71499 125.78317 133.29676 131.19875 126.44664 124.45411 110.10825 112.67537 110.78015 105.71128 104.99509 98.27415 86.58074 34.72224 -123.43176 -169.66488 -213.61661 -333.40221 -675.91737 -1534.13463 -2714.76974 -3555.59536 -3917.76746 -4005.96767 -4008.70431 -4009.61574 -4011.50002 -4010.48647 -4010.37473 -4010.27084 -4016.16414 -4014.94904 -4013.82519 -4011.15372 -4012.91503 -4013.21866 -4015.97249 -4009.75285 -4017.49190 -4021.62455 -4007.48832 -4012.90930 -4015.17317 -4013.77278 -4018.85772
-2661.69317 -2656.20395 -2613.20773 -2838.80483 -2761.35945 -3235.02824 -3323.94421 -3552.36653 -3597.81085 -3803.96795 -3964.65014 -4021.84794 -4032.99693 -4081.83195 -4073.64480 -4067.99693 -3976.51593 -3669.51233 -3182.09914 -1867.42179 -1018.75169 -313.00394 -70.23401 59.34042 249.58210 358.89165 501.43694 640.22070 716.56273 760.24356 790.78791 851.40929 991.46034 1060.77666 1120.29247 1160.56782 1159.34397 1169.16776 1159.51135 1161.58305 1163.24727 1166.22280 1170.45679 1160.12065 1106.43641 1022.73835 891.00526 659.26410 561.74606 465.29256 482.32292 563.04552 568.89337 675.59332 787.18184 991.58999 1095.47733 1155.63645 1167.58262 1178.60017 1180.91928 1179.98802 1184.32037 1184.84640 1192.20704 1180.78349 1149.45030 1009.91554 800.00056 525.88827 392.62090 254.05353 159.37308 95.66759 80.13896 40.86449 53.36193 46.82382 45.41799 36.10301 40.56932 32.50724 35.54771 35.01471 41.18681 43.50498 42.05390 37.81807 37.77462 39.79021 45.30299 35.55505 49.92711 57.23162 83.93233 97.14360 110.93572 125.42040 130.05108 131.26921 128.63993 126.95023 127.68879 116.12550 108.98928 107.10168 102.20752 106.79218 110.32731 93.02906 76.28148 4.25869 -84.64175 -161.01585 -205.68448 -340.81843 -1117.53462 -2007.18292 -3075.66409 -3778.05536 -3949.20696 -4007.22408 -4014.04823 -4007.65301 -4011.12190 -4004.04948 -4012.94049 -4007.18276 -4018.03374 -4010.16648 -4014.20975 -4012.63437 -4011.91315 -4006.94215 -4018.24154 -4014.32527 -4012.41195 -4011.40258 -4018.12780 -4017.75451 -4022.41391 -4019.78073 -4027.20392
-3595.63008 -3592.46421 -3561.31782 -3451.19073 -3603.51855 -3775.66020 -3782.93292 -3897.38987 -3993.19657 -4068.16614 -4065.93949 -4090.26656 -4091.09778 -4090.49060 -4091.44226 -4092.45926 -4071.55560 -3915.22068 -3584.27238 -2506.97391 -1360.01302 -433.03374 -240.54926 -162.10289 21.25293 113.55975 349.17111 587.06263 673.77471 739.03304 803.58164 874.80468 1031.19513 1098.36128 1161.78764 1163.28047 1160.21602 1162.36477 1169.42393 1167.17622 1165.58323 1173.45221 1169.20927 1140.93061 1084.19389 977.96949 793.49784 580.29551 430.51483 414.00781 376.46939 379.77642 479.57338 539.60229 662.28105 895.98715 1083.46460 1135.57060 1148.11612 1178.13106 1169.51274 1178.57391 1179.93765 1189.98697 1182.99246 1188.23741 1171.70865 1120.23931 1008.86272 818.30154 714.76286 476.24763 357.77452 185.80553 99.91577 67.01965 49.71113 44.57342 42.33899 47.49745 40.20828 45.34291 40.13705 45.06205 40.06661 34.74684 44.91500 36.79405 42.67260 43.61065 45.75536 49.27349 49.98624 71.22270 85.42111 106.97834 120.00241 125.62791 131.10876 139.20720 151.87453 139.20256 123.80082 114.38984 106.61795 95.30155 105.23373 101.24114 113.59931 90.00857 57.30705 -12.21051 -105.17723 -151.93454 -204.17371 -517.89606 -1470.58726 -2480.75627 -3367.34563 -3915.69910 -3991.88752 -4006.37559 -4005.52700 -4006.78262 -4017.80013 -4005.95377 -4006.07156 -4017.07948 -4011.60284 -4011.11438 -4010.26293 -4016.13443 -4016.55579 -4011.36734 -4012.67862 -4018.41498 -4015.94989 -4014.30162 -4022.68713 -4018.60402 -4030.36980 -4027.65923 -4020.21622
-4010.50765 -4014.91104 -3958.94268 -3938.07908 -3999.67380 -4045.82153 -4046.37982 -4094.35847 -4084.01538 -4098.82697 -4094.37660 -4098.97170 -4094.39786 -4096.80021 -4093.78039 -4095.23236 -4090.28322 -4027.26257 -3718.42075 -2879.26784 -2026.85256 -896.48677 -457.61864 -270.41643 -163.61890 -84.67176 153.77898 427.32537 559.90090 745.24810 795.03165 896.55927 1039.18830 1107.10805 1157.58493 1164.32219 1157.47959 1159.60876 1162.47033 1163.70415 1165.12731 1165.55578 1161.70441 1119.13143 1038.92416 922.53572 706.38453 547.21853 383.89817 325.61279 346.22348 345.72634 385.47509 426.37581 589.24808 748.94733 945.05771 1064.15781 1151.12942 1166.91431 1171.64455 1176.25697 1175.22864 1180.69765 1168.00125 1182.87682 1184.67766 1166.55456 1121.74293 1044.72937 936.05732 708.30543 626.04857 446.42164 237.66672 129.04883 61.40053 58.88729 46.43740 42.02223 46.41758 36.40329 41.02589 47.22000 43.37090 45.62104 41.33455 43.12218 42.12443 47.79744 43.85327 52.79427 56.79727 73.53671 95.29406 113.62771 132.98998 128.94290 146.13040 159.28590 162.30749 150.45107 126.24763 122.39922 106.30746 95.61509 107.50106 102.48013 107.06357 121.71005 66.94263 -41.70302 -95.07235 -158.69272 -238.53812 -878.83823 -1711.16840 -2887.46378 -3673.46511 -3881.29622 -3991.00654 -4007.38800 -4005.51626 -4011.89835 -4005.15612 -4003.60099 -4011.50239 -4013.92572 -4013.66497 -4003.56935 -4018.63335 -4011.69283 -4015.51056 -4020.76615 -4017.46545 -4018.51832 -4013.52364 -4018.15850 -4027.96680 -4026.92276 -4023.46614 -4026.56752 -4021.10065
-4108.11956 -4099.37783 -4097.74302 -4093.88788 -4090.01298 -4096.34940 -4097.11937 -4096.79681 -4095.36133 -4106.75224 -4101.14049 -4104.60951 -4098.18930 -4102.86319 -4097.38033 -4094.82188 -4079.96024 -4028.14125 -3668.23757 -3257.87839 -1975.72784 -949.01054 -425.51315 -265.61833 -199.87165 -196.20660 -58.72020 186.62710 409.40030 616.07306 751.18140 872.20575 1024.16236 1087.13005 1124.55703 1115.25643 1117.33018 1144.24220 1157.70630 1139.75145 1128.96871 1141.69751 1115.98400 1069.22053 982.95636 846.23827 712.99286 520.68096 380.81170 315.96003 313.71910 326.64274 324.90466 375.22886 475.60550 644.10561 827.65008 1064.52911 1155.85593 1176.77145 1174.67468 1179.35248 1171.76218 1176.82164 1173.86658 1183.28278 1181.34024 1179.28398 1161.33126 1150.77321 1115.74412 1077.06821 931.11448 588.86672 383.36828 169.31475 96.38582 73.42027 60.57150 48.55003 51.21814 48.70114 50.37144 43.52498 43.85962 39.99984 35.76825 39.96853 35.65816 38.79300 50.42428 49.36459 59.70973 82.51902 103.87271 126.72608 132.60872 141.30601 170.99746 169.37397 174.76795 168.42667 137.14506 120.04580 113.48199 99.24337 102.69834 103.03314 103.90176 105.55983 77.34268 -21.48205 -56.11942 -112.92085 -218.63985 -719.60639 -2043.41420 -3131.91368 -3609.92791 -3958.03132 -4004.80666 -4011.32325 -4009.30740 -4008.51825 -4005.59003 -4013.11564 -4008.31476 -4013.21234 -4019.84881 -4016.86362 -4019.17515 -4017.22721 -4017.40043 -4023.52337 -4017.09695 -4027.65093 -4021.83989 -4016.67108 -4029.38858 -4024.36388 -4026.07271 -4035.00673 -4030.87391
-4105.33397 -4110.97711 -4104.95229 -4100.67329 -4096.03849 -4102.25985 -4101.78499 -4099.13511 -4098.69592 -4104.26263 -4102.73343 -4101.65792 -4094.88744 -4093.90954 -4100.34442 -4097.70424 -4079.54128 -3889.01717 -3598.38205 -2903.14417 -1832.39056 -832.70398 -441.67658 -278.79704 -245.50964 -231.61220 -115.78252 21.45689 219.94374 448.31949 629.42595 829.60334 936.86845 1001.47765 1060.22251 1077.46758 1075.60775 1070.99465 1099.12982 1092.02414 1073.45730 1054.30885 1049.73987 957.33652 894.36178 803.67266 673.29626 480.04191 373.94884 321.09446 312.45070 318.12556 321.53983 325.65798 348.81443 554.06689 765.82923 1020.74392 1139.60620 1159.44521 1165.64338 1176.38294 1179.23272 1179.63322 1174.45839 1173.85473 1179.06591 1180.44747 1181.50819 1171.89589 1163.97343 1130.09988 1069.71191 823.35343 459.66425 252.64883 158.68342 112.25629 94.39720 70.74876 71.26347 57.03309 56.19539 44.03421 44.68625 51.82081 32.80340 37.09707 39.64450 48.77381 44.89424 48.82492 63.10791 86.50122 112.88712 120.68874 144.39771 183.88877 197.34131 232.08277 254.93991 200.14785 143.54835 116.22815 100.48789 101.12468 95.95271 99.55964 101.74919 97.99613 93.02594 37.44775 -48.72627 -122.83114 -379.44693 -790.17718 -2139.71163 -2938.08547 -3732.13908 -3949.38304 -4003.26094 -4004.04738 -4009.59819 -4011.15260 -4005.08459 -4011.21205 -4012.01987 -4006.77771 -4015.57001 -4026.03596 -4014.71482 -4023.27706 -4022.22821 -4024.69932 -4023.72516 -4030.70803 -4030.97745 -4029.53041 -4031.15481 -4032.35087 -4037.86871 -4036.10441 -4034.25773
-4111.15380 -4103.46193 -4108.26943 -4106.27466 -4109.12933 -4101.13676 -4104.66037 -4104.11942 -4101.96550 -4093.87335 -4097.31055 -4102.60907 -4102.68776 -4103.46136 -4094.08185 -4089.57082 -4070.46610 -3769.49865 -3331.73597 -2478.54912 -1399.76981 -828.12335 -404.17761 -305.11629 -283.22211 -242.11248 -180.90676 -140.33965 29.88573 201.41895 535.48705 712.51589 835.53695 918.86517 943.33546 998.21121 964.77041 975.85487 985.51245 992.41173 968.97454 958.90795 923.99857 813.46016 759.69743 679.07034 597.53977 440.70375 366.86533 309.46448 315.46156 317.77518 311.19892 348.51769 370.47050 489.15899 682.02019 975.31392 1049.85328 1135.60448 1155.72015 1178.67314 1168.20418 1181.17054 1179.92118 1173.96305 1179.27891 1171.68079 1183.69812 1166.83084 1150.07538 1105.64642 1035.84155 846.84783 538.60397 404.04542 285.80158 223.73889 179.85091 162.42766 115.57108 189.35571 116.93741 76.02144 51.51728 48.67540 45.47428 38.58326 48.83845 47.08183 45.77011 49.24819 67.96539 113.66515 117.01294 138.94333 159.57032 183.96739 229.28187 288.31126 302.60614 250.55022 148.88182 114.71579 97.30546 105.91434 95.17353 102.57610 96.54648 110.02993 100.34079 89.96543 -15.32587 -102.20320 -174.68196 -732.67161 -1671.56836 -2744.61454 -3729.00495 -3938.36170 -3994.12970 -4008.95877 -4010.97903 -4011.05506 -4007.52639 -4019.81616 -4017.77727 -4019.06068 -4012.26162 -4021.06396 -4020.52443 -4024.87039 -4018.08357 -4020.93537 -4027.36308 -4025.20563 -4027.13607 -4026.06125 -4035.00775 -4040.94910 -4031.61533 -4038.27860 -4039.36963
-4104.45496 -4103.19747 -4110.61799 -4102.28410 -4100.35671 -4104.39097 -4099.35435 -4101.63982 -4100.51249 -4100.25910 -4096.85492 -4097.79307 -4102.43243 -4098.35941 -4095.32646 -4081.04781 -4003.61129 -3736.94673 -2764.43703 -1838.28868 -1127.58307 -445.48960 -381.35347 -301.13391 -293.35260 -282.02186 -241.36873 -186.73906 -48.30775 27.45803 332.30997 521.00112 734.35012 789.23019 836.51673 845.73844 857.38917 870.99172 893.30536 865.71764 831.26572 832.82648 783.81050 731.35259 673.03006 522.04719 465.25414 395.71564 331.66343 315.99563 321.82312 318.87515 351.99295 362.38464 384.46375 477.19051 617.17939 853.86843 1003.96453 1108.43036 1126.17588 1150.14249 1168.33241 1169.36574 1178.76979 1171.63957 1170.87261 1174.60660 1159.53473 1104.68589 1055.13669 980.97538 897.38178 735.73963 667.53742 518.26342 460.56804 382.72610 343.91031 308.83165 351.33035 364.02840 242.36362 169.51349 75.59796 46.33113 49.42395 48.98738 46.64891 49.99672 50.71336 49.99343 89.15817 119.68607 136.18424 154.90307 161.08214 187.93066 265.79440 319.74633 333.68986 224.93173 164.05862 121.20839 106.33437 93.00995 101.92096 93.97893 98.07424 100.50253 99.71793 48.80150 -24.14860 -91.26103 -164.96292 -695.72538 -1420.39361 -2739.42567 -3372.35089 -3846.86751 -3950.35808 -4005.73561 -4010.24053 -4014.19793 -4015.75111 -4015.41507 -4019.03674 -4016.22559 -4023.36226 -4017.50827 -4018.29239 -4016.87679 -4022.89463 -4027.47755 -4024.14046 -4024.32288 -4034.26668 -4023.91828 -4033.47596 -4028.51129 -4025.80819 -4040.43931 -4041.90845
-4108.27241 -4103.17533 -4104.78380 -4104.00083 -4100.84575 -4103.65517 -4097.02715 -4097.50393 -4099.52287 -4097.47923 -4107.59824 -4092.14881 -4097.83749 -4104.15155 -4095.17697 -4080.81336 -3961.76306 -3526.17008 -2533.33138 -1705.15413 -827.39197 -431.32057 -351.09774 -300.95597 -294.56960 -280.57033 -275.63835 -245.56220 -180.06693 -35.05894 170.35074 481.62902 607.39727 728.53966 751.89723 757.83203 702.18951 699.64591 726.56128 708.11080 668.92527 633.20497 628.44817 611.85382 497.64303 414.18333 350.63844 327.55760 320.70739 313.45151 322.79247 329.17944 352.58227 456.13922 469.97165 562.77914 724.03412 839.24677 955.17470 1033.60961 1078.07594 1095.86390 1145.65552 1159.98739 1165.73124 1157.43026 1116.84464 1106.98545 1121.79666 1055.49120 909.43483 821.07765 797.61077 718.16439 682.95655 631.25280 574.54578 529.82156 538.02046 571.38821 666.83042 555.88349 441.15267 245.24683 85.04415 60.44146 43.32601 43.68883 45.48977 44.65265 51.38165 65.44417 108.40330 130.76895 159.34505 188.15101 192.28204 196.41753 278.09102 315.34764 258.92894 160.22949 161.76153 130.21445 105.03881 95.75861 75.97032 92.68307 90.21784 108.46486 99.57442 74.45376 13.22075 -84.50508 -171.09842 -530.78926 -865.56225 -1870.08021 -3167.63713 -3513.94874 -3806.76704 -3990.10562 -4004.71719 -4012.15967 -4012.64673 -4017.41532 -4022.48149 -4020.78238 -4025.83976 -4024.78464 -4025.55602 -4023.78023 -4039.21404 -4024.61449 -4026.20247 -4026.55529 -4034.39128 -4027.51038 -4035.12646 -4039.27094 -4030.51816 -4040.19659 -4041.00136
-4103.31056 -4111.05035 -4103.58021 -4104.19937 -4105.52604 -4101.94615 -4098.67713 -4101.32680 -4101.69453 -4102.14148 -4098.19112 -4091.93387 -4097.90176 -4098.68558 -4095.76512 -4076.29007 -3934.42446 -3614.86816 -2515.25000 -1943.62080 -1047.22011 -688.06485 -369.55541 -314.78662 -293.28642 -283.53884 -274.88569 -250.94827 -229.54791 -143.78075 -43.48114 213.52129 520.99502 654.92883 694.45572 603.46259 494.62463 516.15694 537.24208 552.12607 556.53128 433.77336 379.02015 377.93495 396.28068 315.73548 283.49894 317.31487 343.00924 353.15819 395.18898 420.56800 456.81624 518.59610 602.73843 752.28420 835.05185 931.72502 929.74670 945.54127 965.79942 989.00956 1032.21251 1103.97879 1072.17016 1082.39792 1049.56830 1059.66697 1006.89887 940.43400 799.80881 763.85508 713.10895 685.44896 683.94269 670.20921 664.65655 664.47357 658.05403 717.27327 733.36973 683.92050 437.90651 234.52486 101.78464 55.98816 51.51409 47.48909 45.85521 49.63139 49.11522 98.43178 154.67858 211.97134 224.70770 205.02706 222.66036 200.57707 272.69023 262.86536 218.51763 156.68367 145.10255 103.29173 92.17882 83.20907 93.71903 94.53384 94.47823 102.40860 108.85025 72.68457 3.73945 -97.03691 -145.88632 -180.55974 -556.32462 -1510.72856 -2163.73714 -3095.29077 -3518.62410 -3821.94040 -4003.91083 -4020.16039 -4012.78457 -4021.77695 -4019.20272 -4023.53096 -4024.48496 -4023.15217 -4027.71732 -4030.34528 -4027.46824 -4022.28067 -4027.95118 -4035.83226 -4032.43185 -4030.88106 -4028.97911 -4035.80401 -4033.00303 -4040.36934 -4035.76075
-4106.76506 -4110.46251 -4105.80107 -4105.91317 -4110.03070 -4104.43750 -4102.31697 -4091.40477 -4103.72638 -4091.49119 -4098.71739 -4099.62957 -4094.89748 -4093.47100 -4094.94551 -4090.70535 -3996.25700 -3878.88840 -3353.83322 -2419.44037 -1531.02354 -996.81350 -495.05675 -322.03359 -304.83548 -291.13740 -284.64246 -277.02175 -250.84700 -213.32015 -109.20937 46.84195 285.95037 606.67488 571.97435 474.78815 270.44324 211.21150 272.43417 258.03420 258.79103 290.75641 253.08773 198.12012 238.92881 227.31904 231.46723 354.97216 401.17212 440.99571 491.86685 549.50809 582.06697 676.68294 792.98942 925.70240 954.94436 1009.57270 987.99334 949.15477 900.03854 861.46372 908.29288 943.96973 927.57935 888.93947 889.90985 826.59551 844.56952 796.43375 736.86187 695.84574 683.62213 678.28467 675.72203 658.22830 634.78128 617.18587 616.12851 679.89887 749.79636 609.72562 416.19332 198.33051 94.49203 58.35896 47.60131 48.69261 49.34836 49.77612 68.28464 119.66144 218.89262 299.96164 335.51551 280.02406 240.78480 222.36010 197.99519 178.21185 146.49029 149.91746 115.75492 96.00929 90.81014 91.30881 90.75614 91.29319 96.06430 103.54502 103.72233 97.83923 22.57527 -46.40525 -141.84239 -196.65773 -468.60373 -733.65151 -1406.66080 -2017.38541 -3165.28058 -3661.34056 -3962.39532 -4017.55267 -4019.54976 -4019.04187 -4020.71628 -4024.02628 -4026.40321 -4025.32616 -4034.70730 -4026.80092 -4028.78419 -4030.05994 -4033.06621 -4030.89814 -4030.15737 -4034.20082 -4032.76335 -4035.37476 -4035.27451 -4040.24991 -4041.38047
-4106.67180 -4104.66571 -4108.03963 -4105.70034 -4107.15774 -4106.48088 -4100.05469 -4103.87620 -4101.74867 -4095.20390 -4098.22090 -4100.20198 -4091.14367 -4096.79424 -4098.35428 -4095.93844 -4058.22654 -3955.22228 -3660.98520 -3268.03415 -2335.17680 -1695.53527 -1124.31764 -407.25265 -339.23972 -304.49576 -283.96011 -283.37687 -276.53564 -230.34759 -175.71563 -77.93928 180.30851 447.79009 467.04150 210.74583 98.62203 42.93645 32.92196 33.44780 98.72607 81.68852 54.29522 49.87602 99.83359 131.62712 324.19881 437.33542 495.75114 546.76732 596.33207 609.82132 679.67577 716.19400 896.49757 1016.94091 1090.85998 1091.58981 1045.99685 954.20064 893.79642 829.64592 815.74755 806.81248 814.76838 799.49030 758.00135 733.56516 727.68676 720.05495 695.72110 676.84299 664.04302 649.61626 604.70270 585.77758 554.86503 542.06791 523.47892 539.40422 547.03635 377.86639 299.96219 133.37835 62.61679 52.89450 46.83255 47.23805 55.34831 69.42267 111.44403 141.63714 260.62903 404.68774 472.67291 412.30570 240.32305 204.63779 171.62519 146.81413 131.60873 121.64057 102.84180 91.93958 82.30793 90.96750 94.37771 91.43534 91.30955 94.17295 101.90342 112.12001 52.76938 -19.95044 -95.25860 -174.28545 -199.66080 -383.34673 -928.25718 -1860.86234 -2851.14084 -3454.95541 -3907.83182 -4020.42221 -4025.48062 -4023.38545 -4024.93207 -4024.85575 -4031.45982 -4025.77276 -4029.18247 -4028.72076 -4032.14775 -4026.32253 -4027.37886 -4028.55859 -4025.98975 -4024.25236 -4022.92015 -4028.61461 -4035.71333 -4037.75690 -4042.70938
-4111.85932 -4097.20397 -4107.44320 -4102.33609 -4099.52086 -4100.89771 -4104.51409 -4099.41126 -4093.52797 -4101.48461 -4104.19540 -4094.49989 -4105.67202 -4097.93318 -4098.33475 -4087.04487 -4083.04926 -4056.87781 -4001.59373 -3775.87566 -3110.32642 -2228.05693 -1396.66316 -761.52109 -449.08214 -300.97439 -294.23579 -289.96317 -272.51564 -243.85038 -209.68932 -102.10829 -8.29215 186.96469 248.23858 79.33279 -64.94686 -140.63706 -128.99883 -69.15177 -56.55710 -12.75957 -16.94529 4.98079 86.47195 182.53816 393.10705 526.67676 603.16106 631.69767 636.43815 678.75650 757.50847 850.74872 1007.97285 1110.23125 1142.84973 1148.59547 1117.04270 1054.58233 964.66891 859.25181 777.01402 746.54234 725.65247 701.41416 700.43737 697.90357 680.95640 649.30875 637.78647 633.10780 626.49627 603.58944 556.07413 500.54522 430.15976 406.25742 369.23417 387.08072 397.11446 231.51695 182.06912 86.76526 47.06953 52.15952 52.65432 68.63141 82.79178 84.99948 137.14618 231.70408 383.91417 497.12518 512.14706 381.53035 248.64310 214.71770 173.63022 127.41427 116.99549 101.38739 88.60187 88.42510 95.10680 83.96254 88.26301 86.92327 94.76572 93.80600 93.51161 81.57428 51.27257 31.79840 -57.45312 -140.01536 -179.98584 -354.35142 -633.22334 -1251.62026 -2543.14420 -3521.65005 -3884.81634 -4006.48184 -4031.60909 -4028.70473 -4030.22178 -4026.76727 -4030.98676 -4027.23500 -4031.39853 -4027.34669 -4027.34065 -4026.33733 -4028.10493 -4024.59426 -4021.57531 -4029.12606 -4026.71780 -4034.56680 -4041.07066 -4036.42760 -4038.46241
-4099.18764 -4103.05821 -4112.20267 -4103.35087 -4107.24578 -4101.98682 -4103.44439 -4099.62098 -4094.00056 -4106.83005 -4094.68803 -4088.81285 -4098.17490 -4095.93794 -4088.45787 -4093.64828 -4094.53256 -4081.08433 -4026.78395 -3813.39551 -3607.96563 -2824.23711 -1821.87810 -1059.83913 -451.21545 -299.18495 -293.62792 -290.73343 -278.88480 -280.84397 -237.31851 -160.97905 -82.16428 23.73516 29.07533 -43.61878 -159.24130 -198.64555 -195.99923 -134.80925 -76.07202 -62.00277 -37.90555 5.62908 106.65602 224.10819 433.41747 572.50229 645.35833 672.92234 679.88308 694.28652 805.14911 929.49424 1043.71381 1132.69507 1173.68181 1163.49285 1157.80946 1129.76049 1028.94807 880.13680 783.26419 727.46796 703.74528 673.73281 656.40868 633.78099 632.95454 616.43199 549.93643 533.83185 494.15270 457.90991 433.74129 388.63059 347.61450 330.71360 277.09902 250.22147 192.16534 141.67052 110.61819 66.63758 53.39654 45.47400 50.42797 60.32570 87.56765 103.55268 186.47835 309.79137 462.56333 584.91441 507.36319 373.33748 216.79290 182.06378 159.90291 131.43521 98.83560 86.74561 87.32685 82.56468 94.22676 86.61413 88.94947 94.03527 89.97754 94.83004 88.50679 92.36839 77.39377 28.65110 -55.03242 -120.43580 -187.98382 -285.72791 -629.25975 -1424.23013 -2834.85748 -3403.21814 -3877.04358 -4014.37717 -4028.45335 -4022.57342 -4034.53209 -4026.77187 -4029.56077 -4029.19022 -4032.08467 -4035.75149 -4023.40997 -4025.12359 -4026.11061 -4017.74477 -4026.45686 -4021.50813 -4027.28127 -4023.87462 -4031.97145 -4039.23838 -4041.13241
-4104.69326 -4112.31896 -4090.65280 -4103.21431 -4097.43568 -4100.24505 -4096.37720 -4099.05548 -4092.48631 -4097.78169 -4097.70883 -4096.16161 -4094.26004 -4093.31676 -4086.88600 -4092.75487 -4093.85966 -4098.78133 -4086.14596 -4006.21384 -3873.02391 -3108.24799 -2038.53511 -1227.88735 -542.16988 -348.39610 -304.44314 -295.78509 -288.17796 -278.91450 -273.26700 -246.44821 -190.10110 -150.40582 -137.22475 -179.92103 -213.53255 -243.54555 -232.19050 -198.89311 -139.72277 -100.17146 -69.42749 -31.92986 150.69879 313.48755 495.62141 580.85549 652.75739 685.16593 728.72700 775.94915 912.37560 1028.56492 1100.64798 1148.67131 1159.92970 1167.05426 1169.14265 1152.12895 1071.20701 902.85828 795.76321 724.56416 657.90271 635.79942 602.45036 562.13750 574.28102 476.19916 443.29528 408.16393 411.33453 356.21062 352.49422 315.02153 317.60078 284.57479 213.40892 170.35536 89.14087 82.52989 80.91231 66.50872 51.09628 49.45194 52.67831 48.36053 81.37713 149.21255 230.80360 431.70032 497.32828 614.90632 517.18755 313.55421 239.50310 172.51124 160.30424 140.13827 88.73666 80.31112 90.04785 83.22001 82.18639 84.58473 81.64379 92.00017 88.54576 88.89072 97.98293 94.63925 90.15451 46.35745 -6.12544 -106.26801 -161.77366 -286.96492 -681.08350 -1369.09653 -2700.08668 -3555.55237 -3924.32317 -4013.64376 -4028.82969 -4034.68790 -4028.54228 -4026.46838 -4031.20729 -4025.99644 -4031.15398 -4034.15184 -4027.46670 -4021.78572 -4031.12578 -4020.28616 -4020.98624 -4029.40485 -4024.64497 -4028.84470 -4030.33359 -4042.80470 -4033.09790
-4106.37121 -4104.22423 -4101.56534 -4102.46736 -4098.73090 -4097.65374 -4105.47365 -4096.99361 -4093.31270 -4098.03397 -4099.43204 -4095.19105 -4099.64508 -4091.03542 -4094.16336 -4097.02381 -4087.48377 -4088.27914 -4092.33825 -4049.32069 -3742.45885 -3243.72525 -2097.96314 -1205.36106 -536.45708 -345.35525 -307.59700 -297.83568 -300.15851 -351.82757 -329.44269 -336.38401 -285.76781 -275.12472 -228.96029 -250.83838 -265.35836 -272.69879 -252.15300 -252.97040 -202.00802 -175.21830 -115.58691 -36.26853 152.33533 305.99803 538.90067 632.96090 678.36173 711.78876 762.50491 833.37395 978.53646 1046.26067 1147.01758 1162.93594 1163.60560 1166.87997 1162.92089 1163.54025 1079.25031 966.90635 799.25048 692.23824 629.62735 576.70767 548.75858 459.26800 391.13373 366.89618 367.10317 363.39139 338.22185 315.59304 302.27475 309.72639 295.36568 274.82016 210.95838 148.01986 84.19406 80.58507 68.40665 60.83295 45.77791 45.96208 48.79634 56.49534 74.43532 145.88665 234.25248 469.82692 615.74731 665.19089 546.77466 392.57194 264.08181 158.84253 148.58473 122.69954 89.57794 81.09174 89.08847 90.28377 79.82487 85.86070 86.90508 83.25798 87.64076 89.09849 90.93271 95.97015 93.03357 55.17056 -2.40517 -94.81817 -171.54292 -355.31096 -995.91197 -1869.43340 -2942.56319 -3635.13030 -3985.01943 -4024.70676 -4028.14548 -4031.00162 -4027.79785 -4035.57700 -4026.48192 -4029.47968 -4026.54940 -4023.20048 -4016.74562 -4020.69740 -4014.49560 -4020.42322 -4021.03227 -4020.81691 -4025.28374 -4028.94553 -4030.52864 -4039.92927 -4036.27526
-4104.93780 -4102.26377 -4100.59173 -4100.16937 -4104.47052 -4100.76800 -4095.30012 -4096.32737 -4097.83688 -4094.59709 -4092.34664 -4089.79350 -4100.70125 -4094.68515 -4088.15301 -4088.03667 -4092.99208 -4092.60802 -4081.74522 -4048.41845 -3538.44423 -3152.91457 -1992.39008 -1096.21868 -680.99384 -477.63636 -630.10890 -555.10149 -495.65105 -673.82388 -516.75412 -541.88299 -515.84408 -542.01549 -397.87983 -354.49158 -300.48726 -281.35295 -264.77646 -249.80633 -228.71681 -198.39248 -120.05538 5.11010 230.43108 476.15388 585.90169 692.42085 719.76809 817.15199 838.88010 989.01565 1063.96710 1116.17079 1160.25334 1166.82735 1162.84330 1172.13594 1166.30478 1144.14658 1066.92113 954.28173 843.41488 685.08635 622.18258 498.50953 388.43356 328.76359 314.20657 325.24197 303.43436 320.88334 305.26843 280.44579 276.33667 275.34114 273.77422 260.77872 208.68859 144.36334 90.75240 72.60602 47.85100 54.22915 47.20757 47.53014 51.28411 46.76616 77.54132 126.06620 252.74494 436.72095 583.09542 640.88732 580.34585 316.52208 224.82174 150.73565 131.26342 117.88522 87.93619 82.69445 86.80261 76.21226 90.67361 77.02166 89.79779 88.36197 89.47173 90.12574 89.59966 89.45595 98.46752 71.46816 10.47796 -78.91521 -135.92296 -481.11690 -1201.66391 -2170.48699 -3356.04049 -3834.05615 -4006.29930 -4024.24641 -4030.75990 -4032.58424 -4033.58863 -4025.01983 -4032.28775 -4021.72606 -4022.92391 -4030.88313 -4023.04093 -4017.94479 -4022.57587 -4014.48260 -4014.83019 -4023.97928 -4023.80476 -4022.93427 -4027.63690 -4042.69800 -4046.61599
-4100.42161 -4105.49150 -4105.71014 -4101.06201 -4098.37704 -4104.42709 -4098.60884 -4102.89468 -4103.14920 -4096.60339 -4099.64421 -4096.71009 -4092.84265 -4088.34986 -4092.02204 -4095.70098 -4097.32372 -4093.54486 -4074.69817 -3950.02265 -3657.50662 -2716.35566 -1810.58434 -1078.09505 -903.56292 -1090.18609 -1005.24847 -978.06159 -1246.51800 -1148.87592 -1291.13900 -1324.92737 -1635.19989 -1066.85918 -774.55639 -443.39426 -305.86969 -288.39005 -273.91795 -265.53069 -244.94148 -198.19153 -137.52649 106.03500 283.49365 473.77362 661.89181 720.40841 753.86865 861.48220 923.43488 1054.22957 1122.77779 1147.20675 1165.69059 1161.60962 1161.83930 1158.53133 1148.35425 1122.44180 1039.26685 903.61769 795.10502 691.49119 559.28402 486.18934 378.11168 325.27294 321.84971 303.62957 302.66838 294.15616 275.85100 268.19487 272.41530 259.53229 260.72411 222.36903 153.10950 119.23657 75.98918 51.86300 55.37695 51.95209 51.48017 51.48704 53.08510 73.25926 99.42117 110.34592 269.49343 466.07300 564.41421 594.79333 503.00725 310.57297 209.44327 153.95443 122.23364 96.98119 89.83355 85.81683 83.95758 89.55023 78.47959 83.81850 94.06439 90.37109 77.48399 77.61262 65.29072 76.17613 52.97495 46.19893 6.64056 -67.48279 -181.61740 -552.01051 -1381.95156 -2340.21206 -3525.74238 -3954.59075 -4008.38025 -4036.63883 -4036.28867 -4027.00064 -4032.40693 -4026.23348 -4021.10675 -4024.26497 -4019.89644 -4017.09453 -4016.06980 -4022.21198 -4015.13173 -4014.33337 -4017.76124 -4008.56892 -4024.88703 -4023.59686 -4024.62125 -4042.29979 -4039.95262
-4106.26081 -4098.01357 -4101.68971 -4100.94832 -4101.26474 -4097.61239 -4094.80584 -4099.06391 -4100.41769 -4097.59474 -4101.13476 -4093.94409 -4095.27371 -4092.87693 -4090.48774 -4096.04577 -4088.60481 -4093.29096 -4081.08991 -4025.05149 -3661.11932 -3021.53482 -2126.89246 -1635.21967 -1576.11271 -1651.64899 -2054.92828 -1930.65879 -1955.85670 -2090.72884 -2365.76109 -2164.88954 -2169.63316 -1752.57699 -1171.46187 -447.52530 -369.07519 -305.95450 -282.35314 -269.08815 -259.34045 -206.30442 -152.81694 106.23969 301.03073 562.84277 690.93360 794.34417 887.47870 933.14719 1045.63677 1109.45842 1151.98127 1158.96948 1159.66890 1156.62389 1155.53708 1127.53169 1112.68933 1066.29146 993.81668 862.46517 770.73946 702.71650 480.76612 418.50766 348.25590 325.30413 308.46579 280.37099 266.29804 282.28162 280.79837 273.26183 267.73095 271.70294 242.25229 189.12304 134.60811 98.62528 77.85313 53.24207 44.00272 52.37995 48.02934 52.74931 57.66897 88.47207 124.25525 148.91338 284.16231 443.17107 559.87901 585.42932 437.60932 245.51429 160.90603 136.39669 111.53633 90.16413 83.17276 87.54946 82.16630 77.98966 77.29406 40.11040 61.76978 76.12968 54.08412 22.05553 4.80329 -5.80216 -1.72986 0.43642 -20.32151 -76.12037 -158.59859 -628.24813 -1805.22061 -2786.08779 -3662.72225 -3936.09541 -4018.57738 -4027.67712 -4028.57096 -4030.25654 -4035.75704 -4015.78269 -4019.73669 -4017.34670 -4017.03591 -4019.90862 -4020.97413 -4014.56737 -4013.21518 -4010.68973 -4016.48427 -4007.41156 -4022.87642 -4015.27570 -4031.92886 -4038.59528 -4039.51875
-4101.40137 -4106.49941 -4105.64113 -4103.40189 -4096.27902 -4104.76032 -4099.18976 -4102.32477 -4103.88883 -4095.52830 -4094.56799 -4095.39385 -4098.24250 -4091.52291 -4089.23141 -4093.20755 -4093.62322 -4094.80207 -4085.91860 -4037.25369 -3801.36350 -3427.72160 -2954.12469 -2715.64890 -2680.76474 -2946.45028 -3150.25563 -3340.83321 -3313.07893 -3387.08747 -3150.96160 -3495.99267 -3211.43682 -2852.08529 -1357.85460 -856.34566 -598.26991 -352.14871 -304.78999 -276.61243 -274.04751 -237.18946 -151.97433 -9.16842 284.44769 501.39276 664.67711 810.69184 926.02853 1019.47176 1103.71887 1143.87574 1159.46149 1166.61245 1155.17154 1144.11049 1104.71844 1085.67868 1064.95503 1021.63345 957.12282 913.55692 767.87784 663.95654 509.35671 421.93948 345.55802 319.75404 292.07704 272.14188 270.69126 264.65705 266.25369 271.74447 271.77156 263.89245 238.76664 172.35145 113.27688 88.91595 54.54330 51.93419 55.95050 54.57149 52.72887 62.33654 57.40670 83.22742 137.24893 168.89502 273.52480 391.83553 531.04358 504.51658 353.39932 253.15198 152.18325 129.98101 100.56876 84.97641 83.73155 77.22868 79.80589 80.29248 63.03658 2.83342 53.01763 34.88107 29.87531 -29.77252 -87.37877 -95.82876 -97.53012 -102.25579 -106.38345 -121.47086 -252.69948 -918.07491 -1446.26753 -3165.23747 -3740.16746 -3983.45702 -4025.38287 -4039.20412 -4021.86276 -4021.38885 -4024.35333 -4024.78235 -4019.78713 -4020.98378 -4011.67807 -4018.69300 -4016.13665 -4015.84171 -4004.59687 -4007.44479 -4007.71500 -4006.06130 -4010.79605 -4018.78413 -4027.34503 -4041.60060 -4033.10107
-4101.72882 -4099.49111 -4094.26683 -4097.78154 -4097.93413 -4098.59934 -4093.92534 -4094.74882 -4101.18876 -4095.42480 -4091.39053 -4094.09628 -4094.28653 -4092.60598 -4097.03051 -4090.11843 -4088.54521 -4087.70797 -4086.05401 -4082.46721 -4003.68025 -3707.41860 -3683.43021 -3595.54520 -3454.05875 -3643.66255 -3714.27804 -3764.14074 -3770.78410 -3815.43248 -3958.34625 -3902.34229 -3811.15905 -3476.14225 -2455.23242 -1582.73258 -913.75179 -431.69093 -320.51547 -289.49514 -274.56655 -252.84044 -180.21674 -70.26394 153.88798 398.63944 539.53510 828.65818 933.89128 1035.47967 1089.04133 1146.48109 1151.30131 1158.11086 1136.24956 1113.95639 1073.60387 1027.13766 1012.23077 975.39877 939.54959 895.17164 830.66416 756.58017 604.87631 414.96947 337.55448 319.48491 278.46581 281.55614 262.83067 263.67820 272.88318 263.53044 266.66036 261.27191 197.20920 137.35424 104.63537 66.88395 61.19515 49.66971 46.57227 54.92896 46.66859 55.42534 53.16991 82.20734 144.31045 155.07692 259.90683 325.33052 399.07733 405.18948 279.19756 193.57067 156.24085 132.36563 96.46501 75.94289 74.20738 68.26349 36.23232 81.22083 54.27821 -6.96291 -13.34267 -35.05424 -83.76011 -90.95374 -128.97411 -122.65823 -141.87513 -135.37532 -153.77824 -184.31164 -444.51767 -719.03520 -1988.47931 -3369.05811 -3760.80109 -3987.18696 -4023.06742 -4020.00128 -4021.11378 -4023.75748 -4016.23977 -4022.41476 -4018.88452 -4014.63785 -4019.98826 -4010.17376 -4014.67480 -4010.12806 -4010.96421 -4008.85741 -4003.75499 -4007.62329 -4006.86103 -4010.68101 -4020.01261 -4042.97321 -4041.84062
-4100.02017 -4106.56478 -4098.45325 -4099.82001 -4102.76899 -4099.02865 -4107.15450 -4097.48745 -4098.93246 -4100.87629 -4098.94933 -4085.06098 -4096.89522 -4091.06933 -4092.29905 -4098.08917 -4089.26654 -4092.95877 -4098.73595 -4082.48643 -4083.57067 -4000.87358 -3966.06919 -3918.62295 -3949.09845 -3999.56359 -4050.34464 -4059.36075 -4052.24210 -4064.89170 -4057.52802 -4077.72053 -4027.82181 -3932.91319 -3225.02787 -2116.10717 -1346.08314 -597.38917 -327.40731 -289.52284 -268.34989 -249.52673 -229.11820 -126.09101 -44.39650 214.44697 470.66088 785.97363 921.09735 1013.23555 1055.34206 1112.42504 1129.26469 1126.77710 1104.95234 1073.87172 1021.20378 965.35008 938.40308 941.09319 927.95926 886.66229 866.79700 805.60703 668.84718 527.72439 375.61294 315.25921 276.72328 279.94042 262.11375 264.80870 258.27057 269.48825 271.55011 244.40220 158.01394 130.23044 92.05875 71.87489 49.34170 54.84383 43.16520 53.05547 50.88268 53.57856 61.19230 93.59013 146.30693 168.13088 193.19782 227.29045 249.03244 285.51319 200.10710 160.19027 138.97629 103.43160 80.95171 47.09702 44.99885 30.58397 -5.39325 16.43852 11.26952 -65.23625 -91.69987 -131.08323 -141.96849 -137.88737 -161.68573 -190.70411 -210.90783 -209.09312 -207.41963 -269.15107 -447.72058 -1015.48138 -2225.41339 -3229.50551 -3769.19270 -4001.05567 -4027.78141 -4029.37398 -4026.56631 -4021.94089 -4021.42155 -4015.42831 -4020.73705 -4013.33729 -4011.72504 -4009.17755 -3997.18047 -4005.21507 -4000.13638 -4003.37895 -4002.44151 -4008.00148 -4012.98731 -4011.95378 -4039.46694 -4049.63521 -4047.17062
-4105.05682 -4104.39020 -4100.68653 -4099.26183 -4096.66976 -4099.93353 -4095.44624 -4096.98988 -4102.66895 -4095.71691 -4096.17963 -4097.58345 -4102.76108 -4093.11829 -4096.54580 -4101.24449 -4093.87575 -4091.80636 -4087.55421 -4086.67851 -4088.99999 -4090.74848 -4071.16977 -4071.77383 -4072.63115 -4060.23415 -4079.55496 -4093.25678 -4086.17368 -4085.20942 -4087.93234 -4086.62030 -4065.03809 -3941.27386 -3470.82152 -2661.08027 -1615.35986 -841.78811 -416.62732 -298.79434 -279.68972 -255.63587 -222.98645 -165.57450 -144.15498 72.93081 320.54900 696.09137 896.63608 1001.34773 1036.33481 1067.58509 1093.09685 1089.94038 1074.12091 1021.76056 954.79328 900.02303 777.86094 821.33479 838.88276 860.39547 859.75249 833.90609 738.90868 625.16615 465.19519 345.70980 310.64392 279.10362 272.77981 270.90054 265.57290 271.40832 256.51195 219.33332 167.11760 122.29417 105.91212 67.78324 55.98353 52.44529 51.00045 54.02535 60.46756 60.09999 66.07658 106.68863 155.88249 171.68599 164.81054 155.57898 171.48708 181.67360 146.17963 134.68328 112.78901 83.92330 58.41260 18.29937 12.23512 -27.78398 -30.86724 -88.56479 -99.11616 -100.03557 -142.66121 -183.05890 -194.48895 -209.67307 -225.32018 -233.71324 -264.44450 -247.56692 -284.73084 -493.32186 -660.05047 -1485.75275 -2300.71260 -3385.38090 -3854.89244 -3995.50169 -4026.30168 -4029.85612 -4028.26389 -4015.13306 -4020.74256 -4018.99361 -4009.80539 -4007.74147 -4002.87527 -4004.51512 -3998.21084 -4001.37221 -4001.67410 -3998.69396 -4003.26671 -4000.68972 -4009.31057 -4018.74802 -4028.81313 -4048.67928 -4053.43962
-4095.91088 -4103.79212 -4112.92251 -4098.87117 -4097.89924 -4102.92178 -4092.54745 -4096.35754 -4097.88237 -4098.82708 -4092.93030 -4094.53066 -4099.72314 -4097.52864 -4097.76243 -4094.32606 -4099.62887 -4092.95907 -4096.81787 -4097.47152 -4101.45208 -4094.83901 -4097.67141 -4102.33181 -4093.20909 -4095.31577 -4099.40214 -4094.42036 -4093.30586 -4085.55708 -4096.20271 -4086.35823 -4085.44513 -4039.39989 -3819.91721 -3007.04590 -2144.74273 -1126.08982 -466.91120 -319.04558 -278.11788 -262.55778 -238.25915 -201.98637 -168.19524 -59.12172 249.08331 556.63100 810.91004 935.74498 991.91301 1020.26531 1042.07089 1011.06708 1000.17026 931.57413 875.82157 613.71829 634.66636 644.58335 679.30705 798.23354 848.74046 856.16414 795.33143 732.30139 622.28994 512.86941 357.99052 319.24645 274.79643 273.71256 268.34875 264.50336 248.57995 201.87039 150.27869 136.40520 122.22489 65.13025 57.33544 54.26097 48.57848 53.70677 61.79434 61.71740 71.45968 134.55970 191.20670 200.58254 156.94578 136.11868 144.73207 154.46280 128.07731 103.80218 88.18609 77.43006 59.81463 -1.82833 -48.29524 -78.71768 -104.45765 -133.82589 -159.39455 -167.87658 -170.70226 -214.90742 -250.13026 -272.88614 -258.12451 -306.56629 -349.80188 -410.55640 -671.08380 -801.88363 -1198.26176 -2279.40728 -2590.04619 -3605.66390 -3944.45843 -4020.93693 -4027.98121 -4027.46000 -4021.27306 -4015.97417 -4019.05734 -4018.87545 -4018.18835 -4004.66695 -4002.04112 -4003.83452 -4008.02551 -4000.54100 -3989.97663 -4001.80057 -3994.04540 -4004.01365 -4005.55243 -4020.06415 -4022.49580 -4049.14304 -4049.25048
-4098.31176 -4100.67445 -4099.53017 -4109.21438 -4102.94875 -4091.45686 -4099.59272 -4105.71418 -4102.42256 -4099.15817 -4102.26745 -4098.86717 -4098.55226 -4100.67709 -4101.82727 -4097.08105 -4108.38685 -4093.90406 -4096.03324 -4102.88165 -4101.15572 -4111.18627 -4108.67432 -4107.03362 -4109.20251 -4101.87754 -4102.23682 -4102.69920 -4096.86933 -4098.94049 -4106.56646 -4096.50711 -4088.74535 -4067.92735 -3940.68792 -3449.97445 -2698.21303 -1487.03573 -791.55291 -338.71111 -292.83819 -268.02359 -255.10070 -243.04353 -201.17835 -49.93447 25.81267 363.66301 814.54952 925.73836 967.42496 984.22208 982.96333 949.14202 841.56216 703.46993 569.99046 424.48281 356.48909 330.53138 533.79773 665.29471 792.21015 868.62773 884.16969 840.66810 768.09909 634.90096 547.94319 397.83727 353.88597 296.39772 282.68483 276.85358 253.59532 224.66389 165.46743 132.77127 83.01761 67.31878 61.39215 58.40297 52.03749 52.20184 64.39194 65.68790 84.40034 146.82789 217.38988 231.88549 173.24831 104.80271 84.54891 115.22461 116.69321 88.90204 56.32807 24.43887 9.17413 -43.03677 -85.76049 -115.72759 -154.69416 -167.20293 -206.85470 -237.95729 -268.48201 -283.26642 -313.55603 -342.73957 -328.47031 -587.93729 -1028.89549 -1089.85914 -1389.09625 -1843.93123 -2332.63126 -2595.76413 -3395.65875 -3807.36474 -3991.21805 -4021.55601 -4021.65580 -4021.33734 -4025.71602 -4008.76535 -4022.68145 -4013.89809 -4010.03272 -4010.59925 -4003.21018 -4005.59598 -4000.60424 -3992.10984 -4001.94825 -3996.90325 -3996.60666 -4000.87972 -4000.65758 -4012.64508 -4039.75452 -4051.29485 -4052.92865
-4100.51982 -4104.70963 -4100.48858 -4101.13414 -4103.62610 -4097.09603 -4097.71171 -4105.98294 -4101.52619 -4096.72438 -4100.83256 -4103.55232 -4097.52517 -4110.94681 -4103.64159 -4105.61375 -4104.38775 -4108.00362 -4112.17214 -4106.49941 -4109.53431 -4110.34570 -4109.58918 -4112.96329 -4108.52114 -4116.57056 -4102.68020 -4112.19371 -4108.51490 -4112.26337 -4109.48789 -4110.34668 -4098.85827 -4089.00410 -3986.41112 -3598.76216 -3125.47057 -1813.79283 -1011.33274 -314.91860 -299.65112 -287.92776 -262.94293 -242.18345 -201.54321 -121.06666 -3.64417 372.87614 587.52888 847.72731 935.74250 914.18229 897.05115 884.68229 669.97378 470.23282 250.34731 162.13095 82.17889 132.22614 371.19920 524.69338 752.16328 839.92674 899.75761 937.28804 934.44132 877.22100 742.17704 588.30482 415.49514 349.18836 293.38082 278.67085 268.69655 245.03103 172.30642 129.26152 97.91805 77.21436 74.72537 54.00020 61.03023 55.59793 56.26162 65.24957 76.10349 129.93686 218.20263 213.07692 151.81056 102.78624 81.98883 94.79909 84.14400 86.55878 23.79566 -16.18273 -72.70343 -121.41592 -170.16320 -178.43670 -197.20001 -229.11683 -241.37445 -333.39750 -353.79058 -438.64971 -627.90800 -860.80680 -1284.22665 -1488.53415 -1874.83007 -2184.83264 -2556.92348 -2933.87271 -3062.09581 -3549.78597 -3782.41204 -3935.41689 -4007.00470 -4031.30610 -4022.67355 -4018.23747 -4013.26747 -4018.53537 -4014.60393 -4004.95570 -4000.16412 -3995.62725 -4001.42151 -4006.07685 -3998.82094 -3990.64586 -3993.88905 -3986.53716 -3994.66703 -4002.00685 -4010.26053 -4025.20946 -4040.77032 -4052.46437 -4057.55659
-4102.71145 -4102.44105 -4105.58538 -4103.45877 -4108.11316 -4107.15274 -4097.04128 -4101.57524 -4103.94017 -4100.23896 -4099.85839 -4114.34151 -4111.64877 -4109.75701 -4112.89845 -4107.81564 -4111.55146 -4111.90728 -4114.35841 -4115.37237 -4119.84558 -4116.54760 -4117.45159 -4110.48598 -4117.23597 -4115.36481 -4116.37188 -4125.58136 -4119.31362 -4115.43763 -4109.90776 -4115.73098 -4110.15070 -4100.23261 -4071.07682 -3945.14530 -3150.28084 -2106.55349 -1068.55718 -471.07048 -292.35037 -278.20375 -255.21815 -238.40705 -196.73326 -142.94569 -52.58775 224.03117 489.25094 785.36631 876.06139 780.80577 720.12158 525.96431 373.76740 286.18289 32.47313 12.22110 -13.63964 16.26157 203.91285 345.32243 649.97348 790.68162 891.43729 936.66296 996.49640 987.06999 849.14579 684.47656 550.45297 428.91314 406.28680 317.71905 286.10732 257.67325 185.43837 133.39530 115.74546 77.19980 68.06700 68.29858 56.90080 64.75129 53.62713 67.27952 78.03718 118.35234 217.07227 222.63100 146.99746 99.40165 89.47355 85.99494 88.20516 76.90546 29.02292 -30.85610 -111.57803 -163.85379 -203.50955 -248.12282 -300.01281 -329.15197 -378.57164 -528.64319 -628.70608 -966.51606 -1423.42778 -1524.78480 -2171.68087 -2731.47590 -2809.09084 -3211.85317 -3356.16166 -3474.49430 -3758.92150 -3912.00554 -3963.73924 -4012.01453 -4022.57276 -4023.91313 -4013.22302 -4012.59810 -4013.35775 -4012.07848 -4011.48295 -3995.57345 -4001.73984 -4001.27696 -3996.07940 -4001.87783 -3994.08649 -3996.16830 -3998.08360 -3991.18884 -3994.73055 -4002.14489 -4008.79110 -4018.81692 -4041.29160 -4055.68765 -4060.91997
-4106.52873 -4101.98616 -4108.84578 -4101.75428 -4106.43641 -4110.21876 -4112.41336 -4100.47605 -4111.08717 -4112.64160 -4107.80628 -4113.59932 -4118.74721 -4118.64455 -4116.19214 -4119.07679 -4114.80322 -4123.58061 -4115.17862 -4124.77468 -4125.38194 -4127.68098 -4117.55229 -4134.76152 -4133.07303 -4129.87532 -4123.99524 -4126.72731 -4131.72735 -4131.63336 -4121.82234 -4125.05178 -4117.45101 -4125.11543 -4110.73053 -3932.26218 -3597.59163 -2413.82757 -1294.23630 -566.16716 -332.20104 -300.44253 -254.89959 -219.66662 -153.16141 -79.42804 20.68727 219.54794 484.72290 623.95846 728.38877 508.19220 387.71684 275.08248 91.85714 -63.55236 -85.09011 -36.41652 -27.95853 -23.00918 144.09422 301.52742 558.35640 707.11975 834.36383 930.34436 955.37645 999.00294 971.89919 845.14982 716.48193 598.68462 491.70278 367.88997 301.27740 272.74167 193.41022 161.44556 142.98081 87.33783 67.78364 72.06395 63.58228 55.78314 44.70816 42.07806 64.66909 115.75976 194.96498 206.57511 130.05552 90.57486 78.40296 80.35663 74.56058 64.81217 36.77618 -76.48039 -134.26641 -184.58409 -260.73398 -358.96547 -464.03424 -580.88606 -757.75843 -1070.50457 -1474.32014 -2262.69880 -2434.13702 -2926.16713 -3259.21046 -3192.33792 -3624.89945 -3498.48907 -3944.36793 -3931.73672 -4002.90798 -4007.41393 -4016.05924 -4023.09689 -4018.96570 -4021.90621 -4010.26201 -4016.48374 -4007.69162 -4012.05986 -4005.00987 -4010.62038 -4006.85334 -4001.55964 -4006.90920 -3996.46001 -4000.32228 -3999.97539 -3990.11560 -4002.01046 -3999.94686 -4001.17315 -4004.77832 -4019.50812 -4043.06033 -4064.75176 -4063.09133
-4110.24420 -4104.09167 -4106.51138 -4111.56344 -4113.77326 -4112.38609 -4113.71190 -4110.55155 -4110.81304 -4115.38928 -4111.83033 -4119.78347 -4115.48211 -4112.64594 -4130.37017 -4128.13497 -4126.48274 -4130.08107 -4133.00184 -4130.73515 -4139.38746 -4134.72022 -4139.77792 -4137.35113 -4137.67027 -4141.39107 -4140.71485 -4138.80763 -4141.76482 -4140.99271 -4139.15390 -4139.52492 -4132.93535 -4134.03850 -4114.61986 -4031.27921 -3614.94748 -2923.67378 -1817.22380 -968.01692 -455.48269 -302.63291 -248.57792 -190.01957 -65.03442 46.30710 92.75137 240.10530 429.30388 543.29560 364.55438 260.62415 123.88329 -83.17793 -127.84275 -153.59450 -105.67421 -100.26850 -60.51765 -3.65005 84.56258 155.52556 400.20335 595.77885 729.39419 858.42755 898.83815 957.24060 950.63387 914.68793 858.86852 732.63202 664.67653 488.31722 400.86696 285.14424 212.16553 170.52993 115.04693 66.20820 71.14356 65.34900 73.49180 47.90223 38.62245 25.36002 36.04244 67.30371 117.99456 145.85457 117.07159 76.59838 71.93026 75.55700 78.18011 49.07933 -8.39790 -98.70763 -165.56099 -256.50038 -299.62560 -490.94883 -742.41103 -1068.03140 -1833.47535 -2269.25546 -2471.90547 -2776.39102 -3143.84221 -3536.35245 -3820.38449 -3852.69527 -3956.09985 -3963.79064 -4017.88069 -4006.64591 -4024.79634 -4024.48937 -4024.96219 -4012.82132 -4025.31388 -4016.90853 -4011.45513 -4011.26028 -4007.55994 -4005.41098 -4006.45239 -4006.64099 -4010.55389 -4003.49187 -4006.17553 -4007.39581 -3999.20060 -4004.35670 -4003.31752 -4000.99261 -4012.44777 -4013.28531 -4016.76976 -4029.76286 -4047.10409 -4062.13876 -4070.88814
-4107.93903 -4108.45804 -4116.63772 -4105.43558 -4112.42889 -4105.55974 -4119.97811 -4119.75428 -4114.30132 -4112.33695 -4122.85504 -4127.96063 -4121.47093 -4120.11475 -4132.80634 -4132.10967 -4138.74496 -4140.69749 -4133.11441 -4139.99894 -4144.22917 -4149.92539 -4144.93858 -4143.18928 -4150.92621 -4144.95878 -4151.35306 -4145.18088 -4146.05661 -4151.11432 -4146.72507 -4147.25875 -4143.40067 -4142.75399 -4139.23508 -4077.92980 -3865.29900 -3115.40666 -2087.74323 -1467.50263 -695.81572 -372.17180 -232.80999 -126.19108 -21.45262 111.22920 167.94644 239.32721 310.26194 264.45123 154.65923 95.08529 -144.25135 -187.08709 -192.65105 -196.89262 -158.44460 -126.09787 -85.53861 -0.03167 46.01718 151.15035 274.93022 407.41603 620.67301 729.56203 852.96807 890.93738 907.18537 899.58028 872.75615 812.25593 724.30090 612.16947 466.10358 304.97561 215.96968 146.80187 120.71207 79.02585 70.41185 77.55211 65.39301 39.34255 27.18251 10.50437 8.97765 24.02752 56.32246 78.47965 69.08856 61.74168 69.59657 63.54435 59.26258 -0.37365 -56.98876 -154.93056 -233.81695 -344.44497 -622.98157 -991.32800 -1631.75444 -2273.65258 -2897.85657 -3105.66148 -3543.23843 -3747.45187 -3837.47439 -3934.75472 -3967.12421 -4004.98658 -4018.27755 -4015.99453 -4030.73912 -4030.72226 -4027.90054 -4029.09272 -4009.51893 -4025.65847 -4014.08086 -4015.96386 -4014.85253 -4012.05693 -4009.94008 -4004.82308 -4011.18615 -4010.12730 -4009.85691 -4016.02493 -4011.83601 -4008.77783 -4018.91407 -4009.16863 -4010.72681 -4008.16908 -4014.67914 -4018.09648 -4017.28659 -4031.28483 -4048.98006 -4069.21981 -4066.33195
-4116.68732 -4119.12950 -4108.98374 -4119.44018 -4119.39561 -4122.80699 -4123.79925 -4119.39943 -4130.63394 -4131.38178 -4125.73984 -4120.23506 -4123.56952 -4135.12698 -4135.81670 -4141.88528 -4145.06140 -4147.70907 -4151.33790 -4144.19507 -4146.81542 -4152.29185 -4154.52417 -4150.63840 -4156.18270 -4154.74179 -4151.41518 -4154.78991 -4158.44402 -4153.25110 -4152.10957 -4153.39803 -4149.47318 -4149.20063 -4156.28778 -4118.55601 -3995.37450 -3521.59639 -2799.65147 -1756.33198 -1156.76108 -543.63241 -331.89183 -197.57027 -77.83138 91.29267 118.81466 167.25006 150.74352 126.88977 26.95806 -145.09568 -192.76000 -249.25217 -247.31462 -233.60092 -187.10113 -127.64382 -57.07974 -4.82235 53.60448 96.71690 167.05594 273.55138 493.37755 580.56914 671.53643 773.35178 839.31880 866.02043 848.18049 823.42027 774.75517 668.92097 498.96306 310.29001 210.90942 133.51658 116.16587 91.78662 86.66545 79.82969 66.91152 45.85483 21.06735 12.60601 -5.36248 2.69401 7.38755 35.09359 46.92678 52.21104 47.15030 33.56072 2.89370 -53.39473 -84.50599 -192.24238 -302.19048 -454.98863 -1269.75154 -2010.45568 -2751.30555 -3032.50623 -3559.59875 -3839.85824 -3941.54425 -3939.54933 -3984.24270 -4026.94588 -4035.15483 -4027.00074 -4026.65152 -4032.30165 -4026.70729 -4026.14795 -4020.87942 -4014.34002 -4023.34299 -4013.02922 -4010.59651 -4014.55986 -4006.44123 -4007.37498 -4010.58891 -4010.37130 -4009.22946 -4007.97396 -4014.07255 -4018.56730 -4023.69204 -4026.10525 -4019.60583 -4019.77921 -4026.22224 -4024.29368 -4029.70967 -4028.43566 -4028.35263 -4041.47888 -4048.69803 -4064.13573 -4066.15483
-4122.14895 -4113.19753 -4117.24151 -4122.62311 -4124.34981 -4127.59205 -4124.59869 -4128.33433 -4133.79572 -4132.88045 -4142.05057 -4135.52465 -4142.81891 -4140.39789 -4148.35961 -4143.20035 -4147.11130 -4154.19626 -4157.66743 -4157.90705 -4162.92535 -4170.79475 -4162.65230 -4156.50231 -4162.59834 -4165.95783 -4161.73960 -4162.93055 -4164.48691 -4166.66272 -4163.44853 -4160.53870 -4164.60260 -4157.93188 -4150.15896 -4137.33422 -4091.85068 -3847.03945 -3508.51109 -2199.56804 -1542.93692 -919.38390 -643.46387 -342.53251 -264.80927 -111.84609 -28.91977 68.81737 46.06256 -60.75068 -114.64084 -221.93269 -258.57696 -273.04468 -266.17311 -247.32559 -208.68377 -172.13953 -98.75106 -23.00278 29.48882 67.88382 98.23034 154.65935 238.84245 471.60719 446.63047 624.16644 681.59725 749.21143 784.16058 762.17139 735.26662 621.16678 437.34314 252.84096 168.48724 132.72582 106.93185 92.97515 92.72161 89.05605 68.27254 56.72937 26.69567 3.60793 -5.59186 -13.25849 -18.44158 -14.02083 -7.60990 10.46578 22.36961 29.41939 5.54958 -72.79595 -150.60247 -232.74894 -517.15001 -1219.00483 -2232.28681 -2935.98258 -3670.05289 -3762.44275 -3976.78253 -4011.46958 -4036.88734 -4031.85521 -4040.13365 -4040.79819 -4037.83153 -4032.53507 -4023.90580 -4026.51735 -4020.35354 -4020.11095 -4013.56555 -4011.28186 -4012.98523 -4008.81624 -4018.78950 -4007.96628 -4017.67142 -4005.50624 -4011.17011 -4011.21680 -4026.13985 -4020.83647 -4023.76849 -4039.97599 -4039.04885 -4049.97491 -4050.44383 -4037.78527 -4042.90160 -4046.81012 -4038.22955 -4034.83689 -4033.28094 -4036.41419 -4055.63164 -4063.51220 -4059.28009
-4122.93688 -4123.66362 -4125.31060 -4134.28283 -4130.51734 -4125.25696 -4142.45553 -4139.85911 -4138.96736 -4148.04693 -4142.24675 -4144.77209 -4160.17338 -4151.64213 -4149.47501 -4152.20107 -4152.82191 -4155.28375 -4160.22004 -4163.90106 -4165.38517 -4164.93169 -4170.91945 -4164.07951 -4168.74285 -4166.59508 -4165.27266 -4167.66218 -4167.15192 -4170.14091 -4162.55773 -4174.94868 -4166.87857 -4158.55430 -4167.70838 -4155.50366 -4142.82519 -4044.83172 -3607.90887 -3323.32009 -2361.63738 -1976.79150 -1218.89610 -1095.60433 -1013.34488 -462.96995 -288.47880 -148.83485 -81.79182 -142.35451 -206.05101 -262.58934 -283.84058 -281.72996 -273.27806 -270.04004 -242.82000 -181.85132 -139.43287 -68.27154 -15.07383 28.23483 69.28365 120.84827 141.03548 179.63636 264.47207 446.30613 471.64238 542.74667 574.45194 599.77818 493.74002 464.17190 361.73181 217.27224 147.39154 117.28824 113.76419 97.19004 95.19924 85.81439 76.40937 56.03378 24.21700 6.74415 -0.12028 -9.47933 -19.95535 -40.57659 -45.94840 -19.53336 -20.22440 -34.35439 -36.05433 -111.90600 -173.87916 -392.96233 -837.03839 -1961.06213 -2925.72313 -3322.20664 -3702.70378 -3845.95671 -3938.52652 -3974.33074 -4039.32246 -4030.34995 -4032.69853 -4031.94204 -4033.91654 -4023.95288 -4025.79985 -4031.62622 -4024.53630 -4009.61692 -4019.22655 -4011.63428 -4010.79331 -4013.81327 -4003.25733 -4011.76098 -4015.14823 -4007.55023 -4018.30454 -4024.66426 -4031.10713 -4039.85202 -4048.13995 -4053.12054 -4056.29144 -4067.80171 -4067.17469 -4071.61259 -4060.51301 -4064.05330 -4055.47749 -4043.65652 -4035.68486 -4039.35948 -4043.40356 -4053.71616 -4059.37948
-4129.35234 -4137.44678 -4133.27823 -4130.11992 -4132.96290 -4140.74625 -4142.70872 -4142.39876 -4145.72552 -4151.54907 -4155.94311 -4158.39520 -4156.15264 -4159.98982 -4156.85083 -4165.38355 -4167.48455 -4165.40416 -4164.02272 -4166.66708 -4174.66387 -4169.24173 -4170.70324 -4158.76166 -4170.85395 -4166.60887 -4171.77304 -4169.34775 -4166.67523 -4178.01667 -4164.65473 -4163.39216 -4170.81434 -4162.09127 -4155.67717 -4161.06420 -4156.07931 -4094.73945 -3947.63513 -3746.27839 -3479.12660 -3109.77034 -2390.09533 -2241.80494 -1594.22403 -1067.06649 -526.31318 -335.59275 -293.64260 -248.17994 -260.47327 -308.88487 -311.42906 -295.56282 -292.51791 -278.95072 -256.18108 -235.32967 -181.88382 -130.61351 -113.43056 -54.07089 2.58538 42.08505 60.07537 113.66225 181.72683 251.46095 259.45086 296.39306 324.11734 300.95312 255.76154 224.44101 199.24015 155.71114 116.50008 103.53885 97.00038 93.18333 96.30844 97.67134 79.86970 59.17576 29.47654 2.08094 11.27720 2.23763 -6.47099 -38.19853 -54.92053 -50.45506 -66.94785 -99.58364 -125.07378 -177.76950 -314.82631 -865.39933 -1596.47541 -2473.61914 -3223.48241 -3556.61641 -3732.09574 -3845.48322 -3922.34359 -4000.19878 -4024.25960 -4020.43872 -4029.74310 -4033.22502 -4026.30865 -4023.88918 -4022.34096 -4023.05839 -4021.53131 -4014.45924 -4021.09094 -4009.75846 -4005.74750 -4007.15247 -4019.25671 -4012.69141 -4015.61213 -4015.63093 -4027.63405 -4032.37331 -4041.88856 -4054.86216 -4060.67794 -4075.97287 -4080.16460 -4091.01134 -4095.33416 -4099.17772 -4099.85127 -4078.78424 -4072.93110 -4050.35192 -4055.46634 -4039.81685 -4035.18003 -4045.13922 -4039.66926
-4139.76313 -4134.58568 -4141.76154 -4135.28662 -4142.15517 -4153.22074 -4149.54591 -4161.93441 -4159.58763 -4162.20592 -4158.99567 -4168.77196 -4164.94229 -4166.42550 -4177.92880 -4163.22413 -4174.42122 -4178.20114 -4163.61164 -4175.70176 -4176.00518 -4177.73650 -4167.86248 -4167.33792 -4170.12850 -4163.74781 -4174.12404 -4175.79090 -4170.84255 -4179.49703 -4166.05411 -4173.89458 -4163.45497 -4166.01739 -4163.06915 -4163.19781 -4163.82010 -4159.24010 -4122.55419 -4096.90759 -3917.11800 -3808.03494 -3477.57551 -3146.55987 -2724.68668 -2011.23976 -1107.85369 -668.43040 -492.13568 -484.96613 -377.58966 -337.77689 -324.61526 -308.90639 -302.98860 -309.81293 -300.81720 -264.87184 -247.98405 -220.44921 -140.15635 -117.82842 -61.04273 7.81398 22.53351 101.94387 131.56973 137.23903 163.87184 174.05876 175.80981 164.49122 158.76146 131.25970 128.95260 115.66745 103.42302 101.10731 100.54697 99.92963 95.82178 92.28396 77.94289 52.00710 26.37701 2.38006 15.22598 17.94218 -0.30857 -31.45120 -55.31391 -70.33385 -90.78989 -134.36548 -158.94829 -277.67669 -439.27246 -947.08436 -1992.82941 -2696.16841 -3294.22219 -3546.74330 -3721.65228 -3881.77771 -3963.54325 -4019.66211 -4028.68356 -4036.49281 -4028.46513 -4024.86870 -4022.70948 -4016.71403 -4020.21841 -4017.02567 -4008.04360 -4016.07406 -4007.33462 -4012.10292 -4015.01732 -4011.10859 -4011.55280 -4015.19104 -4022.99765 -4031.43085 -4038.18378 -4044.65474 -4070.85196 -4076.27451 -4084.63891 -4104.46848 -4105.56785 -4114.17548 -4129.08390 -4119.79629 -4123.33531 -4096.01180 -4075.12568 -4067.92910 -4052.05536 -4023.69684 -4020.09235 -4015.56545 -4020.81815
-4146.15379 -4144.60367 -4150.22284 -4150.26592 -4157.48817 -4164.16997 -4171.70026 -4167.70494 -4184.83937 -4184.34873 -4182.92096 -4186.25415 -4179.95904 -4194.24298 -4191.76834 -4186.67317 -4189.94456 -4184.35390 -4189.57532 -4184.61346 -4187.53954 -4184.99102 -4185.49591 -4179.36271 -4177.79822 -4184.33647 -4187.23635 -4175.92026 -4180.92125 -4179.79141 -4179.13469 -4179.14831 -4179.12653 -4175.50789 -4174.89568 -4174.34170 -4174.78792 -4170.01964 -4170.38887 -4165.43449 -4094.59285 -4081.05738 -3919.37426 -3805.15779 -3495.36938 -2317.50146 -2052.87467 -1371.96532 -845.87388 -800.77670 -500.04158 -391.90420 -368.93775 -369.08122 -337.86633 -333.46441 -335.05201 -324.19113 -315.47921 -280.18022 -203.00027 -151.56824 -121.46206 -48.26180 33.06137 71.32706 122.37266 122.10035 139.03815 130.10924 117.05632 113.97721 125.46703 121.57582 118.84350 108.07844 109.12266 96.76344 99.73214 95.17544 92.88286 89.52457 76.84442 43.87123 15.02955 1.07651 2.34459 5.10029 4.56810 -25.19016 -67.33372 -82.29431 -139.46192 -175.21986 -226.49767 -320.74815 -833.62304 -1348.54509 -2319.29742 -2777.31452 -3413.97975 -3652.29055 -3920.63504 -3987.81345 -4006.38305 -4020.35149 -4028.12853 -4018.96577 -4016.91119 -4020.94421 -4017.52672 -4013.51213 -4010.24514 -4015.70098 -4012.28785 -4014.88333 -4002.95000 -4016.28775 -4015.22532 -4010.50447 -4024.44331 -4025.97150 -4034.81835 -4037.52428 -4052.08496 -4065.28344 -4090.63958 -4103.25781 -4124.48270 -4136.21455 -4143.52200 -4158.34099 -4155.77557 -4152.17938 -4128.68186 -4122.26926 -4084.83733 -4072.18120 -4034.35992 -4021.58169 -4006.46105 -3995.49426 -4000.24438
-4153.91127 -4156.49622 -4154.48482 -4168.74091 -4174.49895 -4178.08342 -4192.28669 -4196.84917 -4191.68379 -4202.08797 -4201.41940 -4222.24179 -4208.01913 -4208.52461 -4208.77225 -4207.76868 -4204.28534 -4196.76304 -4207.40444 -4213.52384 -4216.38618 -4205.13055 -4203.36890 -4214.59634 -4202.16443 -4201.27314 -4208.65852 -4197.41173 -4207.59906 -4207.33110 -4198.42445 -4192.31613 -4197.12832 -4199.81127 -4188.78883 -4192.64132 -4189.05557 -4191.90582 -4186.20064 -4168.55325 -4181.08493 -4159.23881 -4168.21300 -4125.22074 -3824.67610 -3350.33856 -3026.41443 -2094.04866 -1750.37008 -1371.91514 -1109.96896 -532.10364 -629.65877 -605.11864 -446.52005 -507.23332 -496.68103 -609.34462 -453.81965 -338.36388 -261.32491 -192.71729 -150.88880 -52.51974 21.70532 88.98982 97.07658 115.21244 118.77915 106.97277 117.16902 109.25826 116.94223 100.58423 103.70662 100.36055 91.14454 93.02858 89.17358 85.34456 82.94064 75.53836 53.58540 23.92015 4.14561 -4.17673 -9.46272 -6.15650 -4.02155 -16.73015 -74.86598 -126.07696 -152.94982 -188.65731 -322.27009 -519.27633 -982.90384 -1629.78255 -2468.73014 -3108.46069 -3572.53318 -3876.28701 -3992.92720 -4013.28916 -4031.22457 -4024.07693 -4026.86778 -4021.58895 -4021.02795 -4009.71543 -4010.91992 -4010.88789 -4006.14055 -4015.37235 -4009.41982 -4016.98655 -4012.01924 -4017.62799 -4013.61200 -4028.21146 -4026.24998 -4035.62027 -4051.07039 -4058.87260 -4074.40161 -4091.41805 -4111.14057 -4130.17851 -4144.21618 -4168.38851 -4178.92837 -4185.23025 -4172.70108 -4159.00098 -4150.06255 -4115.55965 -4089.61983 -4057.27928 -4023.10073 -3990.53904 -3976.34131 -3962.32482 -3968.12262
-4164.43574 -4170.21887 -4166.50608 -4185.43247 -4192.81984 -4207.53930 -4210.03046 -4232.06188 -4236.31293 -4244.11747 -4257.16671 -4243.05406 -4240.59170 -4248.47373 -4223.05506 -4232.45766 -4235.30818 -4246.78013 -4247.26452 -4241.02303 -4233.50650 -4237.45569 -4240.14099 -4233.88484 -4243.68246 -4240.70077 -4241.51051 -4243.17487 -4229.52823 -4240.67265 -4242.71740 -4231.55602 -4229.96593 -4213.83038 -4229.50354 -4219.83584 -4219.45635 -4216.64656 -4229.09951 -4233.78788 -4216.49008 -4212.97200 -4202.51966 -4174.04542 -4144.45521 -3824.72179 -3649.41148 -3340.64983 -2871.47733 -2313.70368 -1932.33977 -1389.30258 -1196.73950 -1246.85715 -884.15872 -721.39273 -1072.07107 -989.99539 -1039.59610 -724.55252 -444.75880 -296.50131 -199.21582 -130.08212 0.75905 47.14741 80.42895 103.18298 101.18129 93.86138 106.20893 99.33340 88.63266 91.40454 87.86951 96.09537 87.17177 79.93887 78.42170 71.33134 78.77919 60.82679 34.38347 22.74897 -9.25436 -12.83487 -9.34720 -2.34829 -3.97964 -26.31010 -78.90474 -139.91496 -163.14658 -223.52946 -319.52757 -662.07958 -1275.46311 -1852.75050 -2967.91841 -3465.77769 -3867.16067 -3997.90941 -4022.35752 -4031.94417 -4025.35180 -4024.54376 -4018.45718 -4010.73712 -4013.88637 -4004.37089 -4009.24985 -4004.94523 -4012.17581 -4009.39569 -4006.94536 -4013.86650 -4014.91285 -4018.15305 -4028.02970 -4028.92647 -4040.06982 -4053.99958 -4066.39692 -4086.72415 -4102.02846 -4125.22494 -4142.38964 -4164.36955 -4183.33527 -4189.12193 -4189.23315 -4192.19080 -4177.01910 -4172.52174 -4139.52024 -4108.19798 -4084.38015 -4031.36675 -3996.04612 -3968.64446 -3951.29060 -3932.24749 -3918.97372
-4190.46716 -4191.29973 -4200.10762 -4212.45203 -4226.90783 -4229.50777 -4250.01221 -4267.27651 -4269.68547 -4284.57798 -4288.88454 -4282.98690 -4292.03774 -4285.55392 -4280.76800 -4284.73648 -4287.64538 -4285.27506 -4285.04721 -4288.46653 -4278.84744 -4289.11582 -4284.30650 -4293.71492 -4299.88871 -4290.53850 -4291.97703 -4280.89790 -4301.38650 -4284.46473 -4283.07805 -4267.83551 -4282.23480 -4282.33937 -4270.84440 -4263.13437 -4270.17298 -4261.95817 -4250.08321 -4262.05089 -4254.70680 -4263.28066 -4236.47038 -4240.02592 -4196.80663 -4156.62690 -4118.53721 -3947.05980 -3605.95100 -3193.04139 -2922.85759 -2778.34721 -2602.11003 -2465.50577 -1966.62775 -2325.70531 -2292.09109 -2387.20900 -1733.26689 -1324.04726 -771.69504 -692.62251 -495.53691 -205.79378 -112.93121 -39.21832 13.08179 94.27880 103.60133 91.97426 98.38949 96.28120 90.61869 89.80067 81.37343 69.07734 67.89329 66.12479 51.47365 49.23140 49.74029 34.68501 26.31709 17.04216 -21.91118 -24.06921 -17.46200 -21.03392 -18.09916 -46.53533 -91.64141 -134.48692 -156.91246 -184.76914 -241.21660 -500.51787 -1269.43552 -2470.44424 -3252.30527 -3617.83103 -3929.97584 -4004.89727 -4023.52031 -4029.27818 -4024.31996 -4019.08473 -4004.83409 -4007.72286 -4003.69453 -4006.02463 -4000.33107 -4007.11229 -4011.63379 -4008.90877 -4004.76364 -4010.80147 -4015.55285 -4022.74315 -4031.33942 -4037.86377 -4054.58303 -4074.97197 -4080.18785 -4112.56907 -4129.52502 -4149.86203 -4158.83907 -4181.24877 -4201.89531 -4205.74172 -4201.02827 -4195.82714 -4182.55877 -4164.23058 -4139.97757 -4088.04166 -4055.54609 -4003.81661 -3970.93049 -3939.16311 -3904.57598 -3900.90545 -3893.87191
-4229.27722 -4218.24308 -4234.84965 -4242.92188 -4268.92705 -4281.10695 -4283.60705 -4296.45305 -4307.91814 -4335.80980 -4353.61974 -4346.83132 -4345.59960 -4360.36143 -4370.98415 -4355.18387 -4344.18587 -4340.43125 -4335.78793 -4321.07205 -4340.31411 -4341.00638 -4357.79337 -4356.76360 -4358.02290 -4342.89630 -4338.78804 -4354.04809 -4359.35869 -4341.34994 -4347.92497 -4346.74267 -4334.91421 -4327.72462 -4330.33725 -4329.96158 -4313.32537 -4306.06330 -4324.21484 -4308.87928 -4286.77071 -4307.19190 -4289.07228 -4279.42034 -4266.30323 -4245.41935 -4220.22283 -4191.86112 -4136.58953 -3856.65614 -3758.72620 -3583.82661 -3424.47000 -3346.46730 -2786.07895 -3081.68610 -3203.42008 -3140.45630 -2844.90111 -2723.89270 -1826.25161 -1404.36094 -1222.43139 -460.91602 -174.28625 -92.57593 22.18580 46.59704 98.93802 97.55043 88.43529 86.86824 80.14957 89.75060 71.28576 66.54381 49.89894 42.28277 51.00484 34.79272 21.65337 3.75625 -3.90390 -16.98617 -24.33528 -42.49034 -35.14792 -22.84739 -35.74288 -56.79696 -107.75826 -136.00324 -135.38108 -97.28646 -119.98516 -330.38892 -1394.37897 -2564.24402 -3418.97413 -3695.09909 -3912.61354 -4003.77010 -4019.26575 -4020.76453 -4022.50582 -4019.42384 -4017.07277 -4007.59143 -4006.56568 -3996.54001 -3996.14255 -3997.73876 -4006.02185 -4010.56249 -4018.77748 -4011.42848 -4027.51380 -4036.92222 -4053.41435 -4066.27643 -4082.26229 -4097.58648 -4116.23579 -4141.34415 -4145.27556 -4170.50979 -4189.45434 -4202.36447 -4203.88776 -4213.02477 -4199.89942 -4191.60109 -4166.84955 -4129.89832 -4102.21055 -4064.69824 -4028.60901 -3972.30394 -3933.93905 -3910.21278 -3886.64382 -3868.73491 -3866.33819
-4248.40972 -4258.36524 -4280.13706 -4282.39441 -4324.23913 -4340.46285 -4362.00234 -4374.61109 -4376.65333 -4393.42581 -4397.75638 -4387.79195 -4389.54716 -4402.91374 -4390.58526 -4401.66130 -4409.38527 -4386.42532 -4411.23148 -4425.40512 -4390.64775 -4388.64191 -4409.38574 -4400.02367 -4415.88748 -4419.17463 -4400.84122 -4410.99244 -4395.34969 -4412.01219 -4403.52250 -4408.61046 -4405.84484 -4391.36705 -4395.29274 -4385.94492 -4408.59744 -4393.71006 -4374.48851 -4368.73684 -4370.44768 -4361.53368 -4365.84716 -4337.94181 -4318.72761 -4303.59774 -4262.03165 -4254.65265 -4232.00515 -4192.83151 -4133.91751 -4065.31506 -4026.28803 -4012.86138 -4075.79955 -4008.14070 -3937.37895 -3893.49590 -3773.63392 -3231.83953 -2832.25982 -2502.39327 -2104.16342 -1129.16886 -386.74994 -163.60437 -34.61054 51.79245 92.86231 94.39878 79.45850 69.00281 48.84814 69.12509 51.09303 37.99226 20.21134 24.99580 2.33384 -3.14106 -11.09813 -26.20564 -30.35461 -32.77046 -44.35214 -50.23814 -48.51180 -45.95304 -32.74342 17.12393 -1.16668 -1.01845 3.61988 171.51471 170.27121 -118.24206 -1093.09527 -2265.27670 -3081.07740 -3460.50154 -3787.23109 -3964.50710 -4019.27210 -4023.73767 -4023.70449 -4019.64384 -4006.37202 -3997.35798 -3993.12439 -4004.20869 -4001.08648 -4003.17564 -4010.24196 -4007.70185 -4010.66992 -4027.04316 -4038.29333 -4050.24423 -4062.60440 -4082.22074 -4086.90444 -4128.08335 -4141.54038 -4166.87193 -4171.79048 -4192.56039 -4206.10707 -4204.38604 -4209.52905 -4191.62925 -4179.58874 -4153.17583 -4120.60437 -4100.15769 -4063.27771 -4018.49336 -3981.99565 -3935.70821 -3908.98417 -3877.91706 -3851.05364 -3850.57282 -3839.66333
-4301.78888 -4296.15767 -4324.89313 -4346.77540 -4376.38949 -4373.98864 -4402.16992 -4419.44725 -4437.34782 -4458.19427 -4470.10371 -4471.97148 -4464.26669 -4472.90563 -4472.07975 -4465.76888 -4470.25739 -4454.46241 -4466.39263 -4463.18799 -4454.03959 -4467.32912 -4447.03368 -4440.89840 -4445.38507 -4461.34067 -4468.10598 -4459.80959 -4456.65549 -4447.80808 -4464.16137 -4452.87146 -4444.31286 -4448.85145 -4461.76979 -4435.82494 -4429.88907 -4445.00846 -4434.20437 -4444.10334 -4434.49972 -4410.50728 -4401.27489 -4375.96267 -4390.19757 -4356.82633 -4338.39288 -4312.65410 -4288.75010 -4264.36794 -4243.87072 -4204.05778 -4192.61283 -4165.17704 -4154.09302 -4125.64651 -4139.17433 -4094.13925 -4058.00361 -3882.19472 -3612.94376 -3403.80171 -2753.25818 -1753.07634 -607.70831 -297.03616 -81.61498 1.16280 30.68863 79.79179 64.95009 67.70930 10.69987 -10.11742 26.72748 12.03245 2.32446 -20.32309 -32.94777 -35.61175 -59.16645 -49.12012 -42.97865 -59.93069 -67.30544 -59.61585 -58.32931 -48.04729 9.45227 110.39708 252.49589 374.51082 346.48736 405.36854 187.12866 -424.30021 -1072.49974 -2155.64503 -2719.01547 -3226.65552 -3720.79466 -3912.46990 -4011.73361 -4012.52237 -4017.05853 -4011.98146 -4001.48407 -4006.10237 -3996.44455 -3989.56190 -3994.19935 -3996.08766 -4005.65604 -4011.66297 -4019.82636 -4033.36127 -4048.91460 -4071.77819 -4092.16249 -4108.62380 -4135.82632 -4154.45882 -4158.70900 -4177.29042 -4198.35886 -4204.56686 -4204.84276 -4206.57237 -4200.20159 -4176.33309 -4157.24396 -4139.76193 -4104.09830 -4048.97289 -4028.14932 -3972.57200 -3947.84046 -3926.06615 -3871.24865 -3849.62952 -3834.79044 -3828.55217 -3824.70136
